# .PCD v0.7 - Point Cloud Data file format
VERSION 0.7
FIELDS x y z rgba
SIZE 4 4 4 4
TYPE F F F U
COUNT 1 1 1 1
WIDTH 1087
HEIGHT 1
VIEWPOINT 0 0 0 1 0 0 0
POINTS 1087
DATA ascii
-1.1630361 0.83591717 0.48482209 4278821823
-1.1578158 0.83398235 0.48502252 4278821823
-1.1730484 0.84716743 0.48549804 4278821823
-1.1646664 0.84490323 0.4853498 4278821823
-1.1575345 0.84182405 0.48648715 4278821823
-1.1827345 0.85855865 0.48424548 4278821823
-1.1744025 0.855088 0.48502132 4278821823
-1.1666213 0.8536582 0.48577833 4278821823
-1.1944935 0.86344838 0.48510826 4278821823
-1.1851192 0.86536872 0.48417279 4278821823
-1.1756934 0.86427951 0.48448846 4278821823
-1.1693238 0.86413914 0.48550957 4278821823
-1.1936035 0.87446636 0.48437443 4278821823
-1.1857917 0.87351322 0.48525879 4278821823
-1.1783755 0.87067509 0.4863168 4278821823
-1.1698492 0.87044001 0.48789424 4278821823
-1.1950514 0.88401568 0.48693213 4278821823
-1.1872005 0.88215208 0.48610413 4278821823
-0.6806317 0.49894893 0.49679247 4278821823
-0.67335653 0.49794817 0.49543685 4278821823
-0.7358641 0.50928068 0.49757779 4278821823
-0.72218627 0.50877994 0.49571586 4278821823
-0.71594036 0.5088824 0.49588498 4278821823
-0.70446259 0.5085457 0.49505606 4278821823
-0.69471538 0.50631231 0.49439102 4278821823
-0.68485123 0.50371218 0.49481294 4278821823
-0.67697561 0.50173658 0.49487296 4278821823
-0.66695809 0.5000608 0.49638817 4278821823
-1.1361195 0.51949328 0.49637532 4278821823
-1.1247199 0.51937997 0.49435979 4278821823
-1.1134102 0.5174225 0.49569434 4278821823
-1.1046939 0.51704645 0.49443227 4278821823
-1.0920851 0.51731455 0.49429423 4278821823
-1.0844891 0.51712477 0.49446073 4278821823
-1.0750439 0.51761627 0.4956764 4278821823
-1.0632746 0.51896703 0.49571532 4278821823
-1.0529435 0.51994711 0.49225584 4278821823
-1.0433505 0.51779151 0.49734128 4278821823
-1.0327239 0.51856291 0.4965249 4278821823
-1.025152 0.5192855 0.49402606 4278821823
-1.0138872 0.51764441 0.49501818 4278821823
-1.0047903 0.51678967 0.49450415 4278821823
-0.99593145 0.51753068 0.49308115 4278821823
-0.98507464 0.51958978 0.49640042 4278821823
-0.9720065 0.51812154 0.49407741 4278821823
-0.96510392 0.51676148 0.49700016 4278821823
-0.95393968 0.51807463 0.49516088 4278821823
-0.94713688 0.51700842 0.49493992 4278821823
-0.93420964 0.51737577 0.49451187 4278821823
-0.92593217 0.51561302 0.49564505 4278821823
-0.91484386 0.51544124 0.49674991 4278821823
-0.9052254 0.51554358 0.49544197 4278821823
-0.89635056 0.51569366 0.49217165 4278821823
-0.8738023 0.5175221 0.49551165 4278821823
-0.86523938 0.5171383 0.49318695 4278821823
-0.85560787 0.51695979 0.49698609 4278821823
-0.84746134 0.51254481 0.49459833 4278821823
-0.83119059 0.51919955 0.49990493 4278821823
-0.82461953 0.51941854 0.49658844 4278821823
-0.81402439 0.51954776 0.49735475 4278821823
-0.80581343 0.51920605 0.49470437 4278821823
-0.79372507 0.518619 0.49600631 4278821823
-0.78508186 0.51859516 0.49374977 4278821823
-0.77450788 0.51829845 0.49396506 4278821823
-0.76460963 0.51818353 0.49447867 4278821823
-0.75514382 0.51691079 0.49505496 4278821823
-0.74453133 0.51622701 0.49497983 4278821823
-0.73535007 0.51456898 0.49504814 4278821823
-0.72530788 0.51308531 0.49500552 4278821823
-0.71534592 0.51140797 0.49497619 4278821823
-0.706222 0.51078552 0.49520257 4278821823
-0.69517094 0.5102697 0.4947598 4278821823
-1.1326522 0.52534127 0.49280345 4278821823
-1.125111 0.52572894 0.4940123 4278821823
-1.1159637 0.52468437 0.49429455 4278821823
-1.106742 0.52616811 0.49281061 4278821823
-1.0958492 0.5262928 0.49261037 4278821823
-1.0840685 0.52383494 0.49475539 4278821823
-1.0749671 0.52423418 0.49376753 4278821823
-1.0648934 0.5264414 0.49229205 4278821823
-1.0553432 0.52606559 0.4934884 4278821823
-1.0450327 0.52348047 0.49382627 4278821823
-1.0329751 0.52441561 0.4948281 4278821823
-1.0246029 0.52571595 0.4935047 4278821823
-1.0149661 0.52602875 0.49565721 4278821823
-1.0055778 0.52904671 0.49333569 4278821823
-0.99412185 0.52926135 0.49508646 4278821823
-0.98491281 0.52724987 0.49509665 4278821823
-0.97452956 0.5260638 0.49611157 4278821823
-0.96710336 0.52752876 0.49458188 4278821823
-0.95335662 0.52674067 0.49460888 4278821823
-0.94443631 0.52611727 0.49540418 4278821823
-0.93508983 0.52636468 0.4945353 4278821823
-0.92518163 0.52697957 0.49460459 4278821823
-0.91388291 0.52840644 0.49645948 4278821823
-0.90516466 0.52762467 0.49489269 4278821823
-0.89488035 0.52800959 0.49548969 4278821823
-0.88489407 0.52648628 0.49495241 4278821823
-0.87587059 0.52552938 0.49487847 4278821823
-0.86539489 0.52601987 0.4948732 4278821823
-0.85430664 0.52598816 0.49475256 4278821823
-0.84549224 0.52462196 0.49484503 4278821823
-0.83417356 0.52474117 0.49465305 4278821823
-0.82488835 0.52508402 0.49456835 4278821823
-0.81493777 0.52430516 0.49339533 4278821823
-0.80430794 0.52353686 0.49326476 4278821823
-0.79496115 0.52238923 0.49358225 4278821823
-0.78588659 0.52165991 0.49308291 4278821823
-0.77553356 0.52146178 0.49654433 4278821823
-0.76594782 0.52076304 0.49701208 4278821823
-0.75433284 0.52012986 0.49582466 4278821823
-0.74778706 0.52021575 0.49223861 4278821823
-0.73738652 0.52104157 0.49792325 4278821823
-1.1210673 0.53064245 0.49156478 4278821823
-1.1162044 0.53105664 0.49150771 4278821823
-1.1044884 0.53086007 0.49527678 4278821823
-1.0925359 0.53152508 0.49505112 4278821823
-1.0847391 0.53193653 0.49252221 4278821823
-1.073663 0.53255486 0.49290279 4278821823
-1.0659217 0.53203928 0.49323612 4278821823
-1.0564572 0.53180903 0.49396253 4278821823
-1.0446218 0.5311451 0.49411535 4278821823
-1.0346268 0.5319072 0.49395815 4278821823
-1.0258946 0.53229707 0.49305677 4278821823
-1.0161128 0.53145009 0.4947162 4278821823
-1.0064018 0.53129286 0.49399018 4278821823
-0.99330169 0.53211546 0.49446917 4278821823
-0.98585141 0.53165472 0.49372321 4278821823
-0.97445327 0.53136855 0.49466631 4278821823
-0.96442664 0.53040695 0.49566454 4278821823
-0.95448011 0.53106409 0.49620366 4278821823
-0.94664401 0.53082508 0.49601936 4278821823
-0.93543136 0.53216439 0.49919784 4278821823
-0.92170388 0.53087294 0.4939844 4278821823
-0.91581553 0.53120756 0.49286956 4278821823
-0.90580273 0.53110921 0.49230304 4278821823
-0.89494675 0.5304417 0.49458 4278821823
-0.88581991 0.53027892 0.49512619 4278821823
-0.87617189 0.53034908 0.49872532 4278821823
-0.86864412 0.53055876 0.49864966 4278821823
-0.85078883 0.5308736 0.49833351 4278821823
-0.84983826 0.53090751 0.49664757 4278821823
-1.1055763 0.56668514 0.49460697 4278821823
-1.09639 0.56934249 0.49800077 4278821823
-1.1112792 0.5756228 0.49466228 4278821823
-1.1061916 0.57237381 0.49420825 4278821823
-1.0968912 0.57371998 0.49780008 4278821823
-1.1210406 0.5843792 0.49276716 4278821823
-1.1123723 0.58505696 0.49577388 4278821823
-1.104831 0.58752614 0.49584776 4278821823
-1.1220875 0.59382904 0.49173793 4278821823
-1.1134502 0.59493595 0.49490795 4278821823
-1.1054423 0.59336686 0.49516422 4278821823
-1.1227576 0.60029584 0.49024957 4278821823
-1.1145661 0.60489917 0.49487293 4278821823
-1.1077915 0.60456896 0.49922884 4278821823
-1.1153935 0.61554247 0.49541685 4278821823
-1.109771 0.61428034 0.49876311 4278821823
-1.1151614 0.62387347 0.49526122 4278821823
-1.1080675 0.6286183 0.495047 4278821823
-1.1200455 0.63958132 0.49760187 4278821823
-1.1163321 0.63649654 0.49491459 4278821823
-1.108521 0.6349445 0.4945401 4278821823
-1.1204286 0.6453104 0.49429351 4278821823
-1.1164428 0.64512056 0.49444333 4278821823
-1.109036 0.64213961 0.49392775 4278821823
-1.1220618 0.6548236 0.49499181 4278821823
-1.1158754 0.65506607 0.49593821 4278821823
-1.1091189 0.65584415 0.4939777 4278821823
-1.123534 0.66508913 0.49494845 4278821823
-1.1166257 0.66500962 0.49548206 4278821823
-1.1094373 0.66402358 0.49326023 4278821823
-1.124475 0.67575908 0.49561352 4278821823
-1.1172916 0.67437243 0.4949607 4278821823
-1.1098528 0.6749199 0.49199998 4278821823
-1.1335883 0.68950546 0.49658865 4278821823
-1.1257155 0.68512046 0.49470052 4278821823
-1.1183074 0.68481362 0.49543285 4278821823
-1.1341718 0.69536859 0.49482998 4278821823
-1.1263829 0.69425112 0.49469048 4278821823
-1.1187136 0.69296682 0.49369457 4278821823
-1.1351886 0.7042495 0.49442279 4278821823
-1.1251351 0.70535231 0.49592116 4278821823
-1.1181231 0.70551264 0.49176854 4278821823
-1.1355244 0.71438378 0.4948771 4278821823
-1.1259571 0.71339959 0.49391177 4278821823
-1.1183382 0.71033561 0.4923012 4278821823
-1.1333799 0.72550869 0.49500504 4278821823
-1.1256845 0.72320271 0.49470904 4278821823
-1.1339552 0.73523122 0.49469048 4278821823
-1.1263868 0.7335695 0.49497682 4278821823
-1.1418772 0.74695581 0.49612561 4278821823
-1.1347451 0.74379915 0.49492395 4278821823
-1.1428266 0.75458992 0.49526519 4278821823
-1.1336727 0.75506657 0.49500102 4278821823
-1.1423527 0.76564425 0.49490702 4278821823
-1.1344442 0.7616595 0.4955886 4278821823
-1.1521735 0.77805758 0.49890909 4278821823
-1.1432617 0.77523994 0.49457532 4278821823
-1.1527466 0.78486443 0.49510348 4278821823
-1.1447201 0.7839967 0.49412137 4278821823
-1.1522255 0.79565048 0.49522853 4278821823
-1.1465368 0.79387903 0.49405703 4278821823
-1.1527412 0.80595493 0.49563813 4278821823
-1.1451159 0.80327874 0.49526817 4278821823
-1.1614498 0.81628877 0.49479818 4278821823
-1.153916 0.81541252 0.49640808 4278821823
-1.1445105 0.81504297 0.49421465 4278821823
-1.1625735 0.82716876 0.49692163 4278821823
-1.1563405 0.82498342 0.49493417 4278821823
-1.1453524 0.82201594 0.49312022 4278821823
-1.173223 0.83481771 0.49477661 4278821823
-1.1633795 0.83467084 0.4951081 4278821823
-1.1574248 0.83436459 0.493922 4278821823
-1.1728363 0.84781057 0.49433669 4278821823
-1.1645021 0.84541577 0.49550232 4278821823
-1.1571501 0.84214103 0.49462336 4278821823
-1.184739 0.85946399 0.49597111 4278821823
-1.1741771 0.85595471 0.49483427 4278821823
-1.1667252 0.85445255 0.49492237 4278821823
-1.2006879 0.8645559 0.49185818 4278821823
-1.194235 0.86661875 0.49213457 4278821823
-1.1852485 0.86631131 0.49522951 4278821823
-1.1762445 0.86481452 0.49614492 4278821823
-1.1695933 0.86450446 0.49502239 4278821823
-1.2017121 0.87728953 0.49823606 4278821823
-1.1938227 0.87514418 0.49543378 4278821823
-1.1863011 0.87413418 0.4947215 4278821823
-1.1786243 0.87092865 0.49503958 4278821823
-1.1699301 0.87052196 0.49083245 4278821823
-1.2018889 0.88023591 0.49664918 4278821823
-1.1951576 0.88267398 0.49334508 4278821823
-1.1876051 0.88194203 0.49301904 4278821823
-0.69739437 0.4999198 0.50444716 4278821823
-0.68485379 0.4992303 0.50619906 4278821823
-0.67349446 0.49759012 0.5044561 4278821823
-0.72211635 0.50925136 0.50415361 4278821823
-0.71414971 0.50922966 0.5051859 4278821823
-0.70367283 0.50845134 0.50495756 4278821823
-0.6948151 0.50653499 0.50482446 4278821823
-0.68555027 0.50386822 0.50488585 4278821823
-0.67736608 0.50187391 0.50535792 4278821823
-1.1367308 0.51907265 0.50645363 4278821823
-1.125237 0.5185914 0.50429893 4278821823
-1.1139498 0.51773864 0.50595587 4278821823
-1.1043826 0.51749027 0.50456893 4278821823
-1.092732 0.51711631 0.50487626 4278821823
-1.084234 0.51648247 0.5055865 4278821823
-1.0756226 0.51757801 0.50490814 4278821823
-1.0640709 0.51898456 0.50453639 4278821823
-1.053528 0.51764864 0.50670952 4278821823
-1.0438316 0.51805705 0.50453734 4278821823
-1.0364068 0.51883125 0.50532317 4278821823
-1.0261924 0.51834393 0.50533438 4278821823
-1.0136573 0.51786661 0.50405002 4278821823
-1.0044899 0.51832485 0.50503445 4278821823
-0.99622577 0.51949513 0.50607687 4278821823
-0.98973638 0.51945019 0.50284213 4278821823
-0.97180837 0.51866519 0.50427651 4278821823
-0.96410221 0.51849771 0.50510341 4278821823
-0.95532733 0.5183171 0.50495553 4278821823
-0.94685936 0.51711059 0.50444984 4278821823
-0.93489349 0.51753676 0.50442493 4278821823
-0.92533833 0.51619053 0.50574279 4278821823
-0.9153747 0.5154891 0.5046097 4278821823
-0.90743858 0.51628685 0.50534493 4278821823
-0.89757848 0.51874405 0.50401706 4278821823
-0.87415463 0.51763314 0.50435561 4278821823
-0.86399239 0.51689637 0.5053789 4278821823
-0.85628378 0.51456606 0.50433677 4278821823
-0.84621179 0.51559603 0.5036459 4278821823
-0.83212864 0.51915121 0.50158286 4278821823
-0.82378501 0.5178135 0.50277084 4278821823
-0.81591368 0.51849329 0.50178146 4278821823
-0.80277359 0.51762533 0.50421339 4278821823
-0.79555702 0.51689029 0.5035584 4278821823
-0.78201002 0.51917076 0.50422633 4278821823
-0.77362537 0.51923996 0.50405586 4278821823
-0.76442397 0.51880008 0.50410616 4278821823
-0.7553091 0.5176214 0.50472611 4278821823
-0.74474329 0.51653135 0.50526112 4278821823
-0.735017 0.51444334 0.50483716 4278821823
-0.72564983 0.51252156 0.50415146 4278821823
-0.71518296 0.51135468 0.50445867 4278821823
-0.70551938 0.51141614 0.50485945 4278821823
-0.69814706 0.51085114 0.50557548 4278821823
-1.130137 0.52579033 0.50690013 4278821823
-1.1268327 0.52159107 0.50487435 4278821823
-1.1143622 0.52082729 0.50581193 4278821823
-1.0913123 0.52226877 0.50544655 4278821823
-1.0837985 0.52022111 0.50182861 4278821823
-1.0757524 0.52110535 0.50045532 4278821823
-1.055522 0.52155167 0.50576138 4278821823
-1.0459735 0.52149951 0.50294995 4278821823
-1.0340651 0.52189481 0.50946343 4278821823
-1.0257282 0.52173078 0.50606793 4278821823
-1.0151379 0.52206147 0.50418955 4278821823
-1.0058748 0.52324748 0.50844496 4278821823
-0.99557388 0.52451491 0.50458539 4278821823
-0.98414826 0.52118206 0.50516135 4278821823
-0.97398657 0.52437741 0.5037933 4278821823
-0.96709657 0.52561307 0.50247717 4278821823
-0.95409852 0.52845818 0.50324184 4278821823
-0.94368911 0.5245862 0.50380707 4278821823
-0.93594772 0.5251525 0.50274062 4278821823
-0.92454249 0.52794778 0.50278276 4278821823
-0.91529214 0.52866244 0.50294685 4278821823
-0.90507412 0.52790761 0.50223249 4278821823
-0.89438576 0.52761656 0.50296158 4278821823
-0.88486278 0.52637213 0.50338852 4278821823
-0.87528425 0.52604234 0.50363231 4278821823
-0.86553901 0.52557141 0.50373071 4278821823
-0.85479921 0.52468532 0.50346345 4278821823
-0.84645987 0.52403921 0.50379634 4278821823
-0.83418852 0.52399462 0.50438476 4278821823
-0.82514453 0.52469909 0.50388849 4278821823
-0.81456393 0.52352476 0.50430608 4278821823
-0.8052597 0.52303594 0.50496614 4278821823
-0.79507661 0.52348655 0.50520122 4278821823
-0.78549868 0.52235103 0.50357062 4278821823
-0.77487755 0.52178049 0.50431538 4278821823
-0.76572216 0.52105099 0.50505948 4278821823
-0.75865412 0.5200578 0.50538129 4278821823
-0.74138534 0.52086782 0.50209463 4278821823
-1.035024 0.53212351 0.501719 4278821823
-1.0241876 0.53337264 0.50117016 4278821823
-1.0169014 0.53138489 0.5013606 4278821823
-1.0062479 0.53085506 0.50173712 4278821823
-0.99726468 0.53104097 0.50163978 4278821823
-0.98571986 0.53134853 0.50241226 4278821823
-0.9750905 0.53170359 0.50246018 4278821823
-0.96471214 0.53051484 0.50237644 4278821823
-0.95437062 0.53066289 0.50136971 4278821823
-0.94513547 0.53114522 0.50166875 4278821823
-0.93185341 0.5314188 0.50405979 4278821823
-0.92723262 0.53109515 0.50224733 4278821823
-0.91901731 0.53125465 0.50138462 4278821823
-0.90271449 0.53157604 0.50270283 4278821823
-0.89670444 0.53060102 0.50300944 4278821823
-0.88385803 0.53084487 0.50248742 4278821823
-0.87448943 0.53046185 0.50571513 4278821823
-0.86826557 0.5304631 0.50127774 4278821823
-0.85173953 0.53083968 0.50001949 4278821823
-1.1130278 0.56665838 0.50757176 4278821823
-1.1060505 0.56675583 0.50416762 4278821823
-1.0965765 0.56945556 0.50093311 4278821823
-1.1117783 0.57552248 0.50454426 4278821823
-1.1048173 0.57453483 0.50358379 4278821823
-1.0970778 0.57383311 0.50073242 4278821823
-1.1215198 0.58026212 0.50904655 4278821823
-1.1129745 0.58575487 0.50539118 4278821823
-1.1047711 0.58496726 0.50414866 4278821823
-1.1140313 0.59500724 0.5056811 4278821823
-1.1058574 0.59484231 0.50270766 4278821823
-1.1148953 0.60370904 0.50402766 4278821823
-1.107975 0.6037569 0.50372839 4278821823
-1.1139332 0.61564416 0.50460315 4278821823
-1.1086154 0.61316878 0.50727606 4278821823
-1.1155876 0.62329555 0.50390553 4278821823
-1.10816 0.62607181 0.50604254 4278821823
-1.1202387 0.63879144 0.50491494 4278821823
-1.1167883 0.63611954 0.50542408 4278821823
-1.1087589 0.63459879 0.50487757 4278821823
-1.120922 0.6441915 0.50410342 4278821823
-1.1154829 0.64532185 0.50530905 4278821823
-1.1092002 0.64164603 0.50180703 4278821823
-1.1227267 0.65460831 0.50542986 4278821823
-1.1161531 0.65437526 0.50493103 4278821823
-1.1240017 0.66305506 0.50721192 4278821823
-1.1169792 0.66497874 0.50516516 4278821823
-1.1325557 0.67510563 0.50767791 4278821823
-1.124977 0.67502457 0.50491679 4278821823
-1.1176132 0.67380065 0.50486016 4278821823
-1.1336167 0.68621701 0.50359285 4278821823
-1.1262517 0.68602699 0.50550711 4278821823
-1.1185095 0.68395823 0.50461447 4278821823
-1.1347336 0.69610298 0.50288415 4278821823
-1.1271594 0.69507325 0.50553536 4278821823
-1.1188793 0.69155574 0.50215757 4278821823
-1.1325978 0.70597619 0.50595975 4278821823
-1.12791 0.70332253 0.50555885 4278821823
-1.1328315 0.71580535 0.50666684 4278821823
-1.1274023 0.71493709 0.50492311 4278821823
-1.1338158 0.72465438 0.50531512 4278821823
-1.1241767 0.72292852 0.50317216 4278821823
-1.1428283 0.73818702 0.50531471 4278821823
-1.1343389 0.73442996 0.50545794 4278821823
-1.1266326 0.73321831 0.50405878 4278821823
-1.1422381 0.74541354 0.50485933 4278821823
-1.134977 0.74350077 0.50382203 4278821823
-1.1426024 0.75615925 0.50623775 4278821823
-1.1340096 0.75514048 0.50493622 4278821823
-1.1427813 0.76569587 0.50467002 4278821823
-1.1336035 0.76301527 0.50491917 4278821823
-1.1522322 0.77509421 0.50578237 4278821823
-1.1437521 0.77443045 0.50477153 4278821823
-1.1517916 0.78673422 0.50661337 4278821823
-1.145023 0.78440803 0.50449544 4278821823
-1.1518056 0.79595542 0.50616473 4278821823
-1.1457335 0.79450405 0.50479954 4278821823
-1.1535369 0.80540901 0.50475824 4278821823
-1.1485593 0.80436444 0.50512809 4278821823
-1.1621451 0.81621903 0.50537962 4278821823
-1.154496 0.81509143 0.50463367 4278821823
-1.1499037 0.81238276 0.50281465 4278821823
-1.1629022 0.82644838 0.50494248 4278821823
-1.1562545 0.82418936 0.50553399 4278821823
-1.1737736 0.83508271 0.5024662 4278821823
-1.1638834 0.83538169 0.50493944 4278821823
-1.1570042 0.83404207 0.50592995 4278821823
-1.1754932 0.84558725 0.50501823 4278821823
-1.1653796 0.84454632 0.50538582 4278821823
-1.157442 0.84249711 0.50517702 4278821823
-1.1852177 0.85863143 0.50572652 4278821823
-1.1748307 0.85603452 0.50500607 4278821823
-1.1667918 0.8537069 0.50476724 4278821823
-1.1575178 0.8506121 0.50435114 4278821823
-1.1853555 0.86811543 0.50549662 4278821823
-1.1766303 0.86558419 0.50520468 4278821823
-1.1698 0.86360329 0.50574261 4278821823
-1.2018477 0.87631989 0.50635856 4278821823
-1.1941644 0.87458014 0.50569421 4278821823
-1.1857491 0.8732354 0.50448614 4278821823
-1.1783377 0.87163436 0.50264949 4278821823
-1.2020952 0.88044477 0.50413692 4278821823
-1.1890349 0.88378698 0.50491279 4278821823
-0.67166781 0.48838195 0.51807296 4278821823
-0.69346422 0.49895498 0.51844454 4278821823
-0.68204188 0.49828783 0.51809496 4278821823
-0.67424917 0.49616364 0.51443118 4278821823
-0.73102832 0.50945979 0.51713264 4278821823
-0.72318834 0.5091539 0.51545274 4278821823
-0.71494049 0.50807583 0.51496649 4278821823
-0.70445347 0.50729853 0.51519793 4278821823
-0.69514954 0.50585222 0.51475203 4278821823
-0.68472254 0.50365579 0.51462215 4278821823
-0.6785084 0.50150675 0.51267165 4278821823
-1.1370158 0.51706529 0.51505494 4278821823
-1.1273509 0.51671779 0.51510864 4278821823
-1.1143601 0.51725316 0.51353979 4278821823
-1.1049976 0.51781565 0.51357138 4278821823
-1.097628 0.51841003 0.51580703 4278821823
-1.0841641 0.51797867 0.51516676 4278821823
-1.0743186 0.51882517 0.51369238 4278821823
-1.0645707 0.51866531 0.51519924 4278821823
-1.0540745 0.51798004 0.51530325 4278821823
-1.0443261 0.51883614 0.51590168 4278821823
-1.0399172 0.51907313 0.51250756 4278821823
-1.013711 0.51801252 0.51625967 4278821823
-1.0051529 0.51857722 0.51488769 4278821823
-0.99471188 0.51789224 0.51477891 4278821823
-0.9842993 0.51678753 0.51644826 4278821823
-0.9736346 0.51853108 0.5148946 4278821823
-0.96457732 0.51798546 0.51352501 4278821823
-0.95475745 0.51704764 0.51498497 4278821823
-0.94622302 0.51904565 0.51165235 4278821823
-0.9347325 0.51858515 0.51493806 4278821823
-0.92706209 0.51575691 0.51445609 4278821823
-0.91218227 0.51636153 0.51559108 4278821823
-0.90591711 0.51584053 0.51385969 4278821823
-0.89110947 0.51995832 0.51067507 4278821823
-0.88511634 0.51801658 0.51608676 4278821823
-0.87678057 0.51694411 0.51485705 4278821823
-0.86367655 0.51732469 0.51490813 4278821823
-0.8553617 0.51638848 0.51369888 4278821823
-0.84807491 0.516536 0.5154525 4278821823
-0.79283369 0.51929748 0.51042861 4278821823
-0.78323507 0.51915896 0.5123753 4278821823
-0.77492887 0.51923352 0.51341414 4278821823
-0.76449662 0.51860195 0.51319963 4278821823
-0.75450885 0.51709628 0.51361138 4278821823
-0.74504447 0.51503348 0.51385409 4278821823
-0.73429459 0.51404071 0.51412457 4278821823
-0.72517347 0.51187342 0.51379812 4278821823
-0.71554613 0.51147997 0.51379675 4278821823
-0.70724887 0.51092201 0.51209366 4278821823
-0.69551098 0.51074809 0.51517856 4278821823
-0.68951917 0.51051033 0.51973498 4278821823
-1.1363229 0.52267575 0.51497567 4278821823
-1.1231219 0.52249891 0.51419061 4278821823
-1.1149298 0.52117139 0.51473546 4278821823
-1.1047441 0.52217954 0.51673418 4278821823
-1.0933313 0.52126741 0.51429385 4278821823
-1.0846339 0.52072781 0.51496655 4278821823
-1.065033 0.52271867 0.51659536 4278821823
-1.0559407 0.52319658 0.51586521 4278821823
-1.0440367 0.52406555 0.51514363 4278821823
-1.0346017 0.52322763 0.51463884 4278821823
-1.0246425 0.52199191 0.51550055 4278821823
-1.0139998 0.52209473 0.51476848 4278821823
-1.0062494 0.5232175 0.51484406 4278821823
-0.99904937 0.52025473 0.51835412 4278821823
-0.98374689 0.52053952 0.5169642 4278821823
-0.97439486 0.52150226 0.51009393 4278821823
-0.96321177 0.52176887 0.51002777 4278821823
-0.95492601 0.52064586 0.51575243 4278821823
-0.94302446 0.52083462 0.51297218 4278821823
-0.93618149 0.52168769 0.51479745 4278821823
-0.89148837 0.52014071 0.5159663 4278821823
-0.88538998 0.52058583 0.51465297 4278821823
-0.87935811 0.52108318 0.51422429 4278821823
-0.86455536 0.52649307 0.51061803 4278821823
-0.85530847 0.52539188 0.51101577 4278821823
-0.84271055 0.52637178 0.51116562 4278821823
-0.83376789 0.52464652 0.51098478 4278821823
-0.82436621 0.52478194 0.51119506 4278821823
-0.79401726 0.52316588 0.51225007 4278821823
-0.78531879 0.52180672 0.51329666 4278821823
-0.77535039 0.52129942 0.51477206 4278821823
-0.76453286 0.52082902 0.51566976 4278821823
-1.1216499 0.56658107 0.51562876 4278821823
-1.1162173 0.56447637 0.51441658 4278821823
-1.1212201 0.57457101 0.51526695 4278821823
-1.1119549 0.57503206 0.51537442 4278821823
-1.1046267 0.57497126 0.51524001 4278821823
-1.1218982 0.58049154 0.51499552 4278821823
-1.1136167 0.58754563 0.51502955 4278821823
-1.1053547 0.58494902 0.51494169 4278821823
-1.1144581 0.59483844 0.51476985 4278821823
-1.1150351 0.60458851 0.51597482 4278821823
-1.1094791 0.6045509 0.51312685 4278821823
-1.1151239 0.61496359 0.51608849 4278821823
-1.1075389 0.61488241 0.51404667 4278821823
-1.1155596 0.62515122 0.51486635 4278821823
-1.1083276 0.62528157 0.51490569 4278821823
-1.1205812 0.63458264 0.51641226 4278821823
-1.1162943 0.63581455 0.51352358 4278821823
-1.1090345 0.6348778 0.51487875 4278821823
-1.1226566 0.64506638 0.51571065 4278821823
-1.1158224 0.64503175 0.51477337 4278821823
-1.1096979 0.64346999 0.51605171 4278821823
-1.1236097 0.65484041 0.5163672 4278821823
-1.1165246 0.65467125 0.51411074 4278821823
-1.1326344 0.66964388 0.51984733 4278821823
-1.1243943 0.66558784 0.51625818 4278821823
-1.1173277 0.66525835 0.5142104 4278821823
-1.1331398 0.67576593 0.5162558 4278821823
-1.1254234 0.67419225 0.51369137 4278821823
-1.1179399 0.67408246 0.51383358 4278821823
-1.1352025 0.6848346 0.5184561 4278821823
-1.1251779 0.68697524 0.51381189 4278821823
-1.1188011 0.68441623 0.51485813 4278821823
-1.1356851 0.69628638 0.51862586 4278821823
-1.1271145 0.69471526 0.51455569 4278821823
-1.1183501 0.69281715 0.51804966 4278821823
-1.1312387 0.70577282 0.5139367 4278821823
-1.1282806 0.70351517 0.51440614 4278821823
-1.133063 0.71518028 0.51575279 4278821823
-1.1285052 0.71416402 0.51502061 4278821823
-1.1422123 0.7280311 0.51796466 4278821823
-1.1339054 0.72482526 0.5154953 4278821823
-1.1246898 0.72524518 0.51419353 4278821823
-1.1416588 0.73591995 0.51562804 4278821823
-1.1346712 0.73401392 0.51436877 4278821823
-1.1232967 0.7335704 0.51346636 4278821823
-1.142797 0.74502003 0.5146687 4278821823
-1.1328168 0.7450633 0.51464343 4278821823
-1.1430911 0.75604278 0.51483583 4278821823
-1.1333818 0.75467986 0.5147621 4278821823
-1.1517681 0.76627713 0.51541942 4278821823
-1.1439462 0.76433426 0.51519293 4278821823
-1.1337112 0.7652753 0.51553017 4278821823
-1.15279 0.77520174 0.5150103 4278821823
-1.1442217 0.77545482 0.5157578 4278821823
-1.1342798 0.77340347 0.51432461 4278821823
-1.152213 0.78596675 0.51516861 4278821823
-1.1453112 0.78414828 0.51485628 4278821823
-1.1522802 0.79594105 0.51503921 4278821823
-1.1468465 0.79350585 0.5146578 4278821823
-1.1540716 0.80583203 0.51490772 4278821823
-1.1464478 0.80595696 0.51575339 4278821823
-1.1624459 0.81409931 0.51446193 4278821823
-1.1551702 0.81493479 0.51446903 4278821823
-1.147234 0.81226444 0.51805401 4278821823
-1.1634597 0.82596403 0.51611733 4278821823
-1.1564319 0.8237856 0.51474535 4278821823
-1.175097 0.8376112 0.51494008 4278821823
-1.1643873 0.83569908 0.51526278 4278821823
-1.1576641 0.83292526 0.51521397 4278821823
-1.1744691 0.84687918 0.51600665 4278821823
-1.1659713 0.84435737 0.51521027 4278821823
-1.1578076 0.84285122 0.51584506 4278821823
-1.1854539 0.85709023 0.51278138 4278821823
-1.17529 0.85481733 0.51483107 4278821823
-1.1660619 0.8534115 0.51464701 4278821823
-1.1579157 0.85223085 0.51793271 4278821823
-1.1855991 0.86652803 0.5144943 4278821823
-1.1769884 0.86311233 0.51557553 4278821823
-1.1698954 0.86234248 0.51313192 4278821823
-1.2025696 0.87574476 0.51232439 4278821823
-1.1951523 0.87538445 0.51571757 4278821823
-1.1860273 0.87223017 0.51468796 4278821823
-1.2045511 0.88055742 0.51632416 4278821823
-1.1972759 0.88247263 0.51755321 4278821823
-1.1894776 0.88399994 0.51109374 4278821823
-0.6726678 0.48884431 0.52414781 4278821823
-0.69240314 0.49887216 0.52134538 4278821823
-0.68251169 0.49783078 0.5234009 4278821823
-0.6751591 0.49479908 0.52381092 4278821823
-0.72225773 0.50772601 0.5208354 4278821823
-0.71439135 0.5086292 0.52228498 4278821823
-0.70503294 0.50698256 0.52199954 4278821823
-0.69532037 0.50461394 0.52300221 4278821823
-0.68528426 0.50206029 0.52328753 4278821823
-0.6776185 0.50106835 0.5263536 4278821823
-1.1380284 0.51853031 0.52324349 4278821823
-1.1228642 0.51859939 0.52348465 4278821823
-1.1139894 0.51835501 0.52700812 4278821823
-1.1021916 0.51838928 0.52403289 4278821823
-1.0980924 0.51865113 0.52254045 4278821823
-1.0848105 0.51833045 0.52476752 4278821823
-1.0750699 0.51864421 0.52580559 4278821823
-1.066201 0.51741076 0.52536619 4278821823
-1.0547121 0.51836669 0.52532935 4278821823
-1.0477195 0.51895356 0.52530664 4278821823
-1.0235287 0.51791549 0.52760017 4278821823
-1.0144732 0.51832634 0.52734017 4278821823
-1.0057262 0.5180217 0.52545929 4278821823
-0.99344933 0.51686108 0.52516758 4278821823
-0.98501551 0.51759434 0.52616191 4278821823
-0.97472787 0.518215 0.5253427 4278821823
-0.96202391 0.51922542 0.52673721 4278821823
-0.95500326 0.51808065 0.52486265 4278821823
-0.94551551 0.51714456 0.52546597 4278821823
-0.90474188 0.51638407 0.52543479 4278821823
-0.88463438 0.51797926 0.527165 4278821823
-0.87579417 0.51817715 0.52398127 4278821823
-0.86395234 0.51770604 0.52473247 4278821823
-0.85523194 0.51822436 0.52602166 4278821823
-0.73427385 0.51480877 0.52298677 4278821823
-0.72510433 0.51329017 0.52358687 4278821823
-0.71424949 0.51237494 0.5253104 4278821823
-0.70482147 0.51138407 0.52653587 4278821823
-0.69586849 0.51111573 0.52480555 4278821823
-1.1337574 0.52103269 0.52466124 4278821823
-1.1223917 0.52137715 0.52540576 4278821823
-1.1155918 0.52157295 0.52514613 4278821823
-1.1035655 0.52256483 0.52447253 4278821823
-1.092468 0.52170235 0.5261333 4278821823
-1.085284 0.52112192 0.52518493 4278821823
-1.0640349 0.52076113 0.52248991 4278821823
-1.0544231 0.52226645 0.525482 4278821823
-1.0432543 0.52251285 0.52447361 4278821823
-1.034637 0.52273071 0.52528149 4278821823
-1.0256926 0.52196342 0.52530825 4278821823
-1.0172431 0.52156621 0.52324581 4278821823
-1.0065995 0.52240121 0.5223918 4278821823
-0.99533391 0.52032185 0.52397114 4278821823
-0.9733972 0.52025759 0.52801251 4278821823
-0.96026599 0.5214861 0.52524304 4278821823
-0.95390874 0.52037531 0.52535796 4278821823
-0.94390702 0.52125937 0.52529752 4278821823
-0.8923409 0.52055091 0.52787149 4278821823
-0.88620442 0.52179021 0.52427447 4278821823
-0.87985909 0.52132428 0.52122062 4278821823
-0.86599857 0.52026546 0.52821428 4278821823
-1.1208084 0.56674582 0.52382004 4278821823
-1.114704 0.56776142 0.52569336 4278821823
-1.1215986 0.57480043 0.52121592 4278821823
-1.1127938 0.57529044 0.52533549 4278821823
-1.1222764 0.58072102 0.52094448 4278821823
-1.1138529 0.58477741 0.52517563 4278821823
-1.1247082 0.59734666 0.5291214 4278821823
-1.1149755 0.59495538 0.52473956 4278821823
-1.1252167 0.60178715 0.52891785 4278821823
-1.1160802 0.604904 0.52478909 4278821823
-1.1171646 0.61432022 0.52573317 4278821823
-1.1079831 0.61797225 0.52253377 4278821823
-1.1202542 0.62776715 0.52619928 4278821823
-1.1159288 0.62429029 0.52602547 4278821823
-1.1085032 0.62509924 0.52232069 4278821823
-1.121152 0.63450694 0.52514052 4278821823
-1.1154726 0.63691092 0.52476847 4278821823
-1.1092526 0.63457066 0.52432525 4278821823
-1.1225026 0.64684117 0.52451849 4278821823
-1.1158718 0.64558727 0.52467448 4278821823
-1.1096976 0.64379752 0.52460694 4278821823
-1.1301477 0.65890539 0.52455878 4278821823
-1.1237863 0.65604287 0.52452916 4278821823
-1.1173472 0.65435159 0.52438629 4278821823
-1.1328236 0.66975862 0.52282178 4278821823
-1.1247429 0.66512626 0.52512151 4278821823
-1.1185584 0.665124 0.52556747 4278821823
-1.1336248 0.6754095 0.52516997 4278821823
-1.1265494 0.67401236 0.52694339 4278821823
-1.1185393 0.67534149 0.52455831 4278821823
-1.1353757 0.68374538 0.52332973 4278821823
-1.1278167 0.68551898 0.52596927 4278821823
-1.1189758 0.68350732 0.523929 4278821823
-1.1333129 0.69757229 0.5268153 4278821823
-1.1279353 0.694794 0.5245102 4278821823
-1.1186351 0.69433701 0.52578646 4278821823
-1.1335617 0.70621198 0.52537912 4278821823
-1.1280144 0.70350808 0.52398008 4278821823
-1.1413208 0.71844697 0.52525264 4278821823
-1.1334312 0.71524161 0.52496898 4278821823
-1.1299449 0.71214819 0.5214498 4278821823
-1.1411967 0.72726381 0.52660978 4278821823
-1.1344167 0.72487038 0.52513814 4278821823
-1.142138 0.73485547 0.52533233 4278821823
-1.13253 0.73520011 0.52499074 4278821823
-1.1434389 0.74498653 0.52494717 4278821823
-1.1330938 0.74508065 0.52468514 4278821823
-1.143611 0.75618929 0.5240624 4278821823
-1.1336563 0.75482714 0.52452248 4278821823
-1.1436759 0.76563138 0.52461207 4278821823
-1.134263 0.76514804 0.52561086 4278821823
-1.1519425 0.77982998 0.52355874 4278821823
-1.1445954 0.77508414 0.52521563 4278821823
-1.134674 0.77261388 0.52449679 4278821823
-1.1527748 0.78587353 0.52442878 4278821823
-1.1445844 0.78497338 0.5260542 4278821823
-1.1520534 0.79610753 0.52533031 4278821823
-1.1482601 0.79296601 0.52483189 4278821823
-1.1620371 0.80626017 0.52522898 4278821823
-1.1545222 0.80526799 0.52541625 4278821823
-1.1487122 0.80466706 0.52135551 4278821823
-1.1642902 0.81567335 0.52531374 4278821823
-1.1554103 0.8144598 0.52565098 4278821823
-1.1473162 0.81240642 0.52066976 4278821823
-1.1638583 0.82517034 0.52551365 4278821823
-1.1560653 0.82503241 0.52373213 4278821823
-1.1758858 0.83854371 0.52419865 4278821823
-1.165578 0.83638555 0.52530241 4278821823
-1.1584423 0.83331442 0.52466196 4278821823
-1.1751906 0.84613842 0.52538508 4278821823
-1.1673775 0.84473032 0.52560371 4278821823
-1.1580372 0.84371549 0.52324772 4278821823
-1.1869155 0.85846281 0.52770734 4278821823
-1.1745975 0.85630906 0.52557522 4278821823
-1.1671711 0.85391599 0.52540565 4278821823
-1.1581354 0.8530761 0.52538294 4278821823
-1.1863854 0.86660987 0.52463257 4278821823
-1.1772606 0.8636058 0.52480435 4278821823
-1.2024443 0.87851113 0.52855015 4278821823
-1.1952429 0.8754397 0.5249517 4278821823
-1.1871016 0.87266904 0.52433646 4278821823
-1.1789883 0.87229323 0.52627254 4278821823
-1.1964062 0.88184875 0.52427226 4278821823
-1.1892575 0.883259 0.52524644 4278821823
-0.68136889 0.49855983 0.53404725 4278821823
-0.67315501 0.49707413 0.53488415 4278821823
-0.71690392 0.50979573 0.53552336 4278821823
-0.70428085 0.50775045 0.53572196 4278821823
-0.69336718 0.50644648 0.5342406 4278821823
-0.68513715 0.50364685 0.53458846 4278821823
-0.67702663 0.50197363 0.5344016 4278821823
-1.134918 0.51755983 0.53586978 4278821823
-1.122669 0.51873147 0.53536165 4278821823
-1.1145911 0.51909089 0.53483403 4278821823
-1.1063871 0.51859033 0.53446591 4278821823
-1.092613 0.51816934 0.53559744 4278821823
-1.0835562 0.51798892 0.53364027 4278821823
-1.0746996 0.51820529 0.53470623 4278821823
-1.0644953 0.51763332 0.5365088 4278821823
-1.0529497 0.51870513 0.53563237 4278821823
-1.0459331 0.51918763 0.53556037 4278821823
-1.0353231 0.51981366 0.53282183 4278821823
-1.0226897 0.51834828 0.53571564 4278821823
-1.0142109 0.51839495 0.53502262 4278821823
-1.0056891 0.51661754 0.53562528 4278821823
-0.99464446 0.51712793 0.53591293 4278821823
-0.9855808 0.51831341 0.53380233 4278821823
-0.97452724 0.51842332 0.53515333 4278821823
-0.96427584 0.51894128 0.53499645 4278821823
-0.95421058 0.5180819 0.533584 4278821823
-0.89583081 0.51638716 0.53604001 4278821823
-0.88290024 0.51668358 0.53634256 4278821823
-0.87551844 0.51695871 0.5338636 4278821823
-0.86425787 0.51818466 0.53696442 4278821823
-0.71451271 0.51221627 0.5346694 4278821823
-0.70426136 0.5110321 0.5325458 4278821823
-0.69573373 0.51077551 0.53246361 4278821823
-0.68457842 0.51009661 0.53792655 4278821823
-1.1357138 0.52161193 0.53432816 4278821823
-1.1218696 0.52227658 0.53481269 4278821823
-1.113843 0.52282494 0.53472739 4278821823
-1.1032604 0.52090412 0.53559852 4278821823
-1.0952179 0.52107799 0.53582883 4278821823
-1.0858387 0.52177751 0.53456491 4278821823
-1.0745174 0.52269733 0.53741437 4278821823
-1.064806 0.52051091 0.53561819 4278821823
-1.052904 0.52133882 0.53506935 4278821823
-1.0346942 0.52339786 0.53502029 4278821823
-1.0267689 0.52194726 0.53548002 4278821823
-1.0043234 0.52045083 0.53553569 4278821823
-0.99554503 0.52108735 0.53420997 4278821823
-0.98253012 0.52261239 0.5356642 4278821823
-0.97674787 0.52028042 0.53346825 4278821823
-0.95742416 0.52049232 0.53227663 4278821823
-0.89262509 0.52068764 0.53183991 4278821823
-0.88661623 0.52117592 0.53177804 4278821823
-0.86243558 0.52086508 0.534226 4278821823
-1.1215575 0.56706238 0.53587347 4278821823
-1.1158922 0.56726432 0.53449547 4278821823
-1.1200622 0.57419288 0.5327934 4278821823
-1.1148667 0.57492822 0.53512478 4278821823
-1.114388 0.58501625 0.5352211 4278821823
-1.115153 0.59537786 0.53510356 4278821823
-1.1166154 0.60510403 0.53492099 4278821823
-1.1176912 0.61481136 0.53481966 4278821823
-1.1206135 0.62618792 0.53499448 4278821823
-1.1163437 0.62451476 0.53417206 4278821823
-1.121803 0.63482022 0.53423071 4278821823
-1.1154671 0.63521469 0.53507614 4278821823
-1.1094027 0.63393056 0.53206599 4278821823
-1.1239585 0.64800072 0.53308392 4278821823
-1.1148692 0.64607215 0.53558141 4278821823
-1.1098467 0.64554149 0.53426766 4278821823
-1.1322244 0.6583764 0.53526264 4278821823
-1.1246791 0.65515029 0.53343236 4278821823
-1.116066 0.65452504 0.53584355 4278821823
-1.1329024 0.66429693 0.5349912 4278821823
-1.1259373 0.6657573 0.53351039 4278821823
-1.1178422 0.66489613 0.53648543 4278821823
-1.1339358 0.67349392 0.53423852 4278821823
-1.1272907 0.67631501 0.53597873 4278821823
-1.1187627 0.67374283 0.53659898 4278821823
-1.1355141 0.68608212 0.53597885 4278821823
-1.1282233 0.68506604 0.5352639 4278821823
-1.1185145 0.68553543 0.53431135 4278821823
-1.1330878 0.69606382 0.53599685 4278821823
-1.1282104 0.69405347 0.5329119 4278821823
-1.1188409 0.69310242 0.53475624 4278821823
-1.1403295 0.70646733 0.53620499 4278821823
-1.1334012 0.70559776 0.53509492 4278821823
-1.1278826 0.70226473 0.53333795 4278821823
-1.1415892 0.71565849 0.53528744 4278821823
-1.133732 0.71438068 0.53410065 4278821823
-1.1416599 0.72651309 0.53517342 4278821823
-1.1346914 0.72388434 0.53505445 4278821823
-1.1427555 0.73491943 0.53503835 4278821823
-1.1328269 0.73565626 0.53509295 4278821823
-1.1440513 0.74480927 0.53489703 4278821823
-1.1333808 0.74519205 0.53514647 4278821823
-1.1515659 0.75369722 0.53695709 4278821823
-1.1433016 0.75605249 0.53670907 4278821823
-1.133919 0.75474036 0.53454953 4278821823
-1.1441234 0.76492977 0.53586257 4278821823
-1.1343354 0.76322556 0.53316438 4278821823
-1.1522322 0.77582133 0.53653574 4278821823
-1.1457572 0.77299446 0.5354802 4278821823
-1.1352384 0.77493066 0.53438544 4278821823
-1.1523374 0.78680962 0.53660619 4278821823
-1.1451983 0.78532124 0.53419179 4278821823
-1.1354983 0.78111488 0.53450739 4278821823
-1.1613085 0.79600281 0.53641003 4278821823
-1.1524036 0.79498434 0.53483129 4278821823
-1.1479408 0.79231602 0.53321749 4278821823
-1.1633025 0.80431306 0.53311414 4278821823
-1.1541847 0.80529594 0.53578246 4278821823
-1.1632743 0.81653291 0.53388685 4278821823
-1.1557091 0.81429404 0.53524876 4278821823
-1.1744922 0.82445198 0.53616589 4278821823
-1.1633496 0.82480603 0.53459626 4278821823
-1.1567596 0.82456893 0.53484946 4278821823
-1.1650223 0.83587825 0.53483444 4278821823
-1.1576277 0.83438504 0.5347873 4278821823
-1.174927 0.8472535 0.53335667 4278821823
-1.1663189 0.84392697 0.53489506 4278821823
-1.1587027 0.84566444 0.53503585 4278821823
-1.1853073 0.85885334 0.53557426 4278821823
-1.1740166 0.85597628 0.53483927 4278821823
-1.1678699 0.85196918 0.53509104 4278821823
-1.1584702 0.8528145 0.53518468 4278821823
-1.1862038 0.8665024 0.53507555 4278821823
-1.1765025 0.86382854 0.53433138 4278821823
-1.2050235 0.87901843 0.53518885 4278821823
-1.1960499 0.87601036 0.53541124 4278821823
-1.1868882 0.87211257 0.53424764 4278821823
-1.1960278 0.88223594 0.53621262 4278821823
-1.1896498 0.88302892 0.53234243 4278821823
-0.68201315 0.49854437 0.54436374 4278821823
-0.70542371 0.50800806 0.54100496 4278821823
-0.69552845 0.50481373 0.54287505 4278821823
-0.68363106 0.50301671 0.54287636 4278821823
-0.67791206 0.50057566 0.54235518 4278821823
-1.135787 0.51812267 0.54587203 4278821823
-1.1233115 0.51872253 0.54559863 4278821823
-1.1163878 0.51930094 0.54312873 4278821823
-1.0930424 0.51775074 0.54369491 4278821823
-1.085807 0.51569337 0.54480994 4278821823
-1.0744215 0.51990032 0.54200578 4278821823
-1.0648832 0.51784861 0.54232693 4278821823
-1.0535417 0.51875937 0.5449121 4278821823
-1.0465791 0.51954007 0.54516619 4278821823
-1.0229442 0.51871073 0.54466128 4278821823
-1.0141413 0.51888824 0.5449484 4278821823
-1.0064034 0.51696134 0.54560256 4278821823
-0.99588227 0.5178141 0.54540765 4278821823
-0.98278636 0.51802081 0.54598379 4278821823
-0.97514725 0.5179655 0.54425037 4278821823
-0.96461815 0.5157069 0.54398566 4278821823
-0.88331223 0.51631856 0.5447579 4278821823
-0.87490714 0.51752734 0.54625189 4278821823
-0.86543924 0.51842159 0.54549557 4278821823
-1.1314014 0.52157784 0.54261363 4278821823
-1.1237071 0.52209938 0.54502833 4278821823
-1.1140718 0.52011812 0.54399616 4278821823
-1.1053238 0.52146244 0.54486465 4278821823
-1.0946407 0.5226028 0.54496896 4278821823
-1.0832664 0.52373147 0.54492521 4278821823
-1.0750498 0.52295351 0.54484767 4278821823
-1.0655551 0.52145332 0.54538453 4278821823
-1.0556622 0.52183437 0.54666865 4278821823
-1.0357909 0.52202159 0.54540026 4278821823
-1.0267732 0.52229726 0.54502195 4278821823
-1.0042075 0.52088094 0.54467124 4278821823
-0.9948718 0.52166498 0.54727674 4278821823
-0.9822486 0.52322763 0.54390365 4278821823
-0.96530861 0.52020991 0.54484534 4278821823
-1.1222645 0.56831747 0.54535109 4278821823
-1.1151242 0.56708497 0.54425091 4278821823
-1.1215713 0.57306802 0.54389513 4278821823
-1.1139168 0.57655042 0.54498929 4278821823
-1.1148663 0.5850268 0.54476506 4278821823
-1.1147023 0.59458274 0.54450625 4278821823
-1.107024 0.59693587 0.54575551 4278821823
-1.1166579 0.60518336 0.5449875 4278821823
-1.1073252 0.60146528 0.54447609 4278821823
-1.1201265 0.61859465 0.54405761 4278821823
-1.1180991 0.61449569 0.54426354 4278821823
-1.1206651 0.62287509 0.54406595 4278821823
-1.1150143 0.62553036 0.54574883 4278821823
-1.1225625 0.63518566 0.54483604 4278821823
-1.1159153 0.63536966 0.54508239 4278821823
-1.1236498 0.64552295 0.54547179 4278821823
-1.1160411 0.64498824 0.54467207 4278821823
-1.109997 0.64366019 0.54222876 4278821823
-1.1248891 0.65499163 0.54522467 4278821823
-1.1144335 0.6550746 0.54500884 4278821823
-1.1265699 0.66623831 0.54473585 4278821823
-1.1149809 0.66438401 0.54542232 4278821823
-1.1272482 0.67518824 0.54487854 4278821823
-1.1173046 0.67398691 0.54689908 4278821823
-1.1328279 0.68869323 0.5449726 4278821823
-1.1279074 0.6843856 0.54549837 4278821823
-1.1187974 0.68538791 0.54439127 4278821823
-1.1401404 0.69886434 0.54975766 4278821823
-1.1342238 0.69531411 0.54541427 4278821823
-1.1261849 0.69425279 0.54571933 4278821823
-1.1191015 0.69166106 0.54593092 4278821823
-1.1407322 0.70503914 0.54532439 4278821823
-1.133276 0.70515919 0.54392576 4278821823
-1.1298087 0.70241416 0.54426247 4278821823
-1.1421003 0.71459651 0.54524529 4278821823
-1.1344223 0.71523124 0.54465491 4278821823
-1.1421988 0.72566175 0.54533052 4278821823
-1.1349502 0.72352052 0.54361683 4278821823
-1.1432272 0.7341758 0.54432058 4278821823
-1.1344656 0.73559934 0.54568666 4278821823
-1.1516451 0.7482087 0.54918647 4278821823
-1.1427588 0.74579799 0.54584348 4278821823
-1.1350058 0.74306911 0.54456872 4278821823
-1.1522428 0.75511438 0.54560322 4278821823
-1.1438128 0.7541669 0.54524302 4278821823
-1.1335863 0.7544865 0.54183924 4278821823
-1.151794 0.76691246 0.54770625 4278821823
-1.1452148 0.7651121 0.54492623 4278821823
-1.1526253 0.77475393 0.54512191 4278821823
-1.1468532 0.77325511 0.54312205 4278821823
-1.1526953 0.78589034 0.54541093 4278821823
-1.1463528 0.78364241 0.54466563 4278821823
-1.1529857 0.79566634 0.54570597 4278821823
-1.1433396 0.79385096 0.54513079 4278821823
-1.1544039 0.80492043 0.54517037 4278821823
-1.1481941 0.80976063 0.54442006 4278821823
-1.161747 0.81772661 0.54635036 4278821823
-1.1553262 0.81423599 0.5446412 4278821823
-1.1481247 0.81281078 0.5453822 4278821823
-1.1751684 0.82626796 0.54239279 4278821823
-1.1633059 0.82449245 0.54533702 4278821823
-1.1555661 0.82421702 0.54417998 4278821823
-1.1766036 0.83562255 0.54397082 4278821823
-1.1642861 0.83585453 0.54537368 4278821823
-1.1569314 0.83434325 0.54463512 4278821823
-1.1750699 0.84819531 0.54414421 4278821823
-1.1672804 0.8445366 0.54462528 4278821823
-1.1590155 0.84523588 0.54401207 4278821823
-1.1859134 0.85733205 0.54619074 4278821823
-1.1744961 0.855097 0.54419518 4278821823
-1.1681509 0.85262346 0.54485482 4278821823
-1.1588038 0.85283101 0.54523617 4278821823
-1.1869148 0.86575621 0.54495335 4278821823
-1.1761814 0.86315715 0.54307884 4278821823
-1.1925647 0.87663805 0.54550523 4278821823
-1.1883826 0.87308496 0.54538536 4278821823
-1.179424 0.87000614 0.54998368 4278821823
-1.193094 0.88300073 0.54482371 4278821823
-1.1881317 0.88148361 0.54889381 4278821823
-1.1444066 0.51785308 0.55501282 4278821823
-1.1352977 0.51770931 0.55360848 4278821823
-1.1236427 0.51784426 0.55284506 4278821823
-1.0936387 0.51879132 0.55172539 4278821823
-1.0866351 0.51833612 0.55358475 4278821823
-1.0782309 0.51722783 0.55010349 4278821823
-1.0646807 0.51831365 0.5562492 4278821823
-1.055567 0.5192669 0.55472726 4278821823
-1.0471563 0.51984441 0.55360043 4278821823
-1.0352151 0.51743221 0.55567783 4278821823
-1.0241866 0.51713884 0.55534512 4278821823
-1.014503 0.5168854 0.5547775 4278821823
-1.0079974 0.51810586 0.55457687 4278821823
-0.99638909 0.51805806 0.5524863 4278821823
-0.98345137 0.51863897 0.55524355 4278821823
-0.97475684 0.51784378 0.55517924 4278821823
-0.96450585 0.5168516 0.5549897 4278821823
-0.88541842 0.51686448 0.55347818 4278821823
-0.87518781 0.51766235 0.55017084 4278821823
-1.1460387 0.52108675 0.55489576 4278821823
-1.1255037 0.52196592 0.55556661 4278821823
-1.1175781 0.52277738 0.55637825 4278821823
-1.1066616 0.52177089 0.55429411 4278821823
-1.0927812 0.52380812 0.55562639 4278821823
-1.0856004 0.52296185 0.55585456 4278821823
-1.0761523 0.52120888 0.55649102 4278821823
-1.0661898 0.52179062 0.55501693 4278821823
-1.0569514 0.52237755 0.55527681 4278821823
-1.0474116 0.52038383 0.55709434 4278821823
-1.0363028 0.52150768 0.5544576 4278821823
-1.0231174 0.52292675 0.55564982 4278821823
-1.015119 0.52001601 0.55182552 4278821823
-1.003123 0.52147418 0.55501342 4278821823
-0.99357998 0.52129984 0.55651766 4278821823
-0.98575187 0.52256298 0.55580389 4278821823
-0.87404966 0.5206821 0.55696404 4278821823
-1.1224734 0.56706685 0.55136794 4278821823
-1.1129966 0.56923443 0.55446506 4278821823
-1.1232679 0.57583916 0.554461 4278821823
-1.1143408 0.57522112 0.55600995 4278821823
-1.1153507 0.58480018 0.5548048 4278821823
-1.1141081 0.59466702 0.55532986 4278821823
-1.1070666 0.59592301 0.55036151 4278821823
-1.1166726 0.60486346 0.55499703 4278821823
-1.1074827 0.60162467 0.55019104 4278821823
-1.1204257 0.61574221 0.55564976 4278821823
-1.1183805 0.61282665 0.55376792 4278821823
-1.1215879 0.62499177 0.55497599 4278821823
-1.1163192 0.62440217 0.55551201 4278821823
-1.1237561 0.63481754 0.55735248 4278821823
-1.1163114 0.63560045 0.55364847 4278821823
-1.1242001 0.64485419 0.55534959 4278821823
-1.1168226 0.64402336 0.55405915 4278821823
-1.125471 0.6548239 0.55475116 4278821823
-1.1160598 0.65450537 0.55461025 4278821823
-1.1268561 0.66541135 0.55486572 4278821823
-1.115576 0.66472125 0.55494785 4278821823
-1.1255462 0.67585158 0.55547047 4278821823
-1.1181197 0.67200267 0.55493975 4278821823
-1.1313399 0.68652636 0.55571544 4278821823
-1.1265483 0.68400025 0.55446786 4278821823
-1.1404501 0.69788653 0.55650985 4278821823
-1.1365967 0.69472665 0.55424386 4278821823
-1.1278558 0.69370818 0.55549103 4278821823
-1.1192713 0.69157255 0.55197883 4278821823
-1.1414269 0.70511734 0.55557799 4278821823
-1.1334494 0.70530182 0.55529457 4278821823
-1.1284168 0.70202827 0.55478883 4278821823
-1.141513 0.71549505 0.55579793 4278821823
-1.1346854 0.7144599 0.5540688 4278821823
-1.1426638 0.72472525 0.55453539 4278821823
-1.1339066 0.7245875 0.55613762 4278821823
-1.1511934 0.73962992 0.55856305 4278821823
-1.1431822 0.73559594 0.55619043 4278821823
-1.1347431 0.73504853 0.55443561 4278821823
-1.1518747 0.74557966 0.55829024 4278821823
-1.1432155 0.74584603 0.55519497 4278821823
-1.1359365 0.74431598 0.55362892 4278821823
-1.1527065 0.75438893 0.55489194 4278821823
-1.1443651 0.75407386 0.55463195 4278821823
-1.1521734 0.76614451 0.55543703 4278821823
-1.147151 0.76445621 0.55495685 4278821823
-1.1533079 0.77512217 0.55526966 4278821823
-1.1461465 0.77498364 0.55477774 4278821823
-1.1524599 0.78568947 0.55536085 4278821823
-1.1465299 0.78209424 0.55459118 4278821823
-1.1535835 0.79529274 0.55506182 4278821823
-1.1435181 0.79306561 0.55249691 4278821823
-1.1620858 0.80859101 0.55419803 4278821823
-1.1548579 0.80562449 0.55547798 4278821823
-1.162037 0.81663126 0.55488437 4278821823
-1.1552353 0.81465828 0.55545378 4278821823
-1.1483449 0.81418091 0.55336654 4278821823
-1.1636176 0.82458335 0.55495006 4278821823
-1.1548932 0.82498121 0.55513412 4278821823
-1.1779962 0.83982342 0.55738139 4278821823
-1.1646013 0.83505756 0.55499315 4278821823
