# .PCD v0.7 - Point Cloud Data file format
VERSION 0.7
FIELDS x y z rgba
SIZE 4 4 4 4
TYPE F F F U
COUNT 1 1 1 1
WIDTH 1086
HEIGHT 1
VIEWPOINT 0 0 0 1 0 0 0
POINTS 1086
DATA ascii
-1.094916 0.5755474 0.22480588 4278821823
-1.0853941 0.57282257 0.22504386 4278821823
-1.0731438 0.57586241 0.22471096 4278821823
-1.0678532 0.57443285 0.22566004 4278821823
-1.1012621 0.58530331 0.2254186 4278821823
-1.0954934 0.58491558 0.22378987 4278821823
-1.0810854 0.583588 0.22493915 4278821823
-1.0729663 0.58511418 0.22508757 4278821823
-1.0692037 0.58346778 0.2250195 4278821823
-1.1045618 0.5978868 0.22392461 4278821823
-1.0946674 0.59516346 0.22553332 4278821823
-1.080792 0.59210116 0.22952968 4278821823
-1.0733683 0.59526867 0.2250945 4278821823
-1.0689317 0.59498334 0.22556648 4278821823
-1.1037233 0.6057592 0.22385265 4278821823
-1.0981842 0.60519463 0.22544485 4278821823
-1.0808268 0.60621935 0.22381693 4278821823
-1.0742795 0.60467416 0.22481173 4278821823
-1.0696106 0.60194057 0.22207502 4278821823
-1.1038393 0.61447531 0.22474191 4278821823
-1.0982507 0.6128695 0.22388975 4278821823
-1.0813926 0.61632943 0.22389057 4278821823
-1.0756962 0.61482036 0.22518805 4278821823
-1.0696614 0.61191678 0.22558314 4278821823
-1.1103597 0.62638509 0.22862378 4278821823
-1.1052281 0.62377542 0.22512484 4278821823
-1.0974509 0.62524194 0.22630306 4278821823
-1.0810941 0.62564361 0.22389023 4278821823
-1.0771205 0.62476432 0.22472057 4278821823
-1.069453 0.6270256 0.2294925 4278821823
-1.1107507 0.63703239 0.22854023 4278821823
-1.1030439 0.63586342 0.22524032 4278821823
-1.0970123 0.63334411 0.22376759 4278821823
-1.0814825 0.6340149 0.2252419 4278821823
-1.0768681 0.63455135 0.224895 4278821823
-1.0695676 0.63284218 0.22591537 4278821823
-1.1115851 0.64527863 0.22637022 4278821823
-1.1033435 0.64517599 0.22492579 4278821823
-1.0951304 0.6425215 0.22273251 4278821823
-1.0825611 0.64624447 0.22563468 4278821823
-1.0774615 0.6443876 0.22523853 4278821823
-1.1116838 0.65491909 0.22475255 4278821823
-1.1044836 0.6553883 0.2254492 4278821823
-1.0832629 0.65549392 0.22510198 4278821823
-1.0784191 0.65492779 0.2259786 4278821823
-1.1142725 0.66492176 0.2242648 4278821823
-1.1044463 0.6644569 0.22639212 4278821823
-1.0914762 0.66484892 0.22212216 4278821823
-1.0838591 0.66499108 0.22501419 4278821823
-1.0787516 0.66422784 0.22410849 4278821823
-1.1150216 0.67448443 0.22503547 4278821823
-1.1052884 0.67495847 0.22472434 4278821823
-1.0913601 0.67796487 0.22457083 4278821823
-1.0855699 0.67517573 0.22565405 4278821823
-1.0790058 0.6749115 0.22204578 4278821823
-1.1227722 0.68599689 0.22386931 4278821823
-1.1145352 0.68615609 0.22578713 4278821823
-1.108886 0.68442464 0.22505838 4278821823
-1.0916435 0.68614447 0.22489958 4278821823
-1.086885 0.68468058 0.22428082 4278821823
-1.1226279 0.69552749 0.22433738 4278821823
-1.1148226 0.69591159 0.22442314 4278821823
-1.1099077 0.69220269 0.22442272 4278821823
-1.0926406 0.69500995 0.22492461 4278821823
-1.0877486 0.69380832 0.22551155 4278821823
-1.1206933 0.70784026 0.22722578 4278821823
-1.1172205 0.70499212 0.22441863 4278821823
-1.0933975 0.70561898 0.22548127 4278821823
-1.0884758 0.70275676 0.22561133 4278821823
-1.1224072 0.71500117 0.22538903 4278821823
-1.1143501 0.71422881 0.22505265 4278821823
-1.1021513 0.7157892 0.22450735 4278821823
-1.0950769 0.71447849 0.22443426 4278821823
-1.088955 0.71505958 0.22446056 4278821823
-1.1236956 0.72523904 0.22614512 4278821823
-1.1178019 0.72479826 0.22447897 4278821823
-1.1009057 0.72785872 0.22274567 4278821823
-1.0957371 0.72514373 0.22548202 4278821823
-1.0896853 0.72250307 0.22805649 4278821823
-1.1244378 0.73426139 0.22559187 4278821823
-1.1175144 0.73694515 0.22441299 4278821823
-1.1012611 0.73494506 0.2241112 4278821823
-1.0967758 0.73495597 0.22577111 4278821823
-1.1245056 0.74544495 0.22455446 4278821823
-1.1176716 0.74249887 0.22515728 4278821823
-1.1021402 0.74480397 0.2257956 4278821823
-1.0978 0.74466056 0.22492261 4278821823
-1.1324378 0.75650853 0.22451369 4278821823
-1.1247487 0.75334346 0.22544403 4278821823
-1.1195259 0.75312471 0.22735773 4278821823
-1.10359 0.75540298 0.22495891 4278821823
-1.0988671 0.75575376 0.22395925 4278821823
-1.1333834 0.76539707 0.22459419 4278821823
-1.1269056 0.76327443 0.2252015 4278821823
-1.1110202 0.76508826 0.22359705 4278821823
-1.1051084 0.76493102 0.22509037 4278821823
-1.0993074 0.76373625 0.22518325 4278821823
-1.1335118 0.77523077 0.22583251 4278821823
-1.1277938 0.77700174 0.22431761 4278821823
-1.1107219 0.77677798 0.22483683 4278821823
-1.1065971 0.77477044 0.22541283 4278821823
-1.1407075 0.7859745 0.2201919 4278821823
-1.1345503 0.78449756 0.2260929 4278821823
-1.1273819 0.78581667 0.22386472 4278821823
-1.1116027 0.78598422 0.22449724 4278821823
-1.1077455 0.78430432 0.22573653 4278821823
-1.1412104 0.79541516 0.22408594 4278821823
-1.133693 0.79576498 0.22606552 4278821823
-1.1281868 0.79512554 0.22573638 4278821823
-1.113318 0.79578555 0.22430781 4278821823
-1.1084089 0.79404902 0.22568616 4278821823
-1.1415035 0.80656642 0.225251 4278821823
-1.1343203 0.80457556 0.22508463 4278821823
-1.121032 0.80595607 0.22214293 4278821823
-1.1138747 0.80508488 0.22475258 4278821823
-1.1086028 0.80277359 0.2250624 4278821823
-1.1421553 0.81553876 0.22462206 4278821823
-1.1371667 0.81440514 0.22554706 4278821823
-1.1222329 0.8165133 0.22672421 4278821823
-1.1154959 0.81598288 0.2253312 4278821823
-1.108229 0.8144154 0.22685431 4278821823
-1.1439751 0.82585597 0.22543502 4278821823
-1.1371585 0.82515311 0.22446567 4278821823
-1.1211598 0.82622331 0.22492324 4278821823
-1.1164416 0.82516664 0.22522366 4278821823
-1.1097109 0.82345641 0.22698489 4278821823
-1.1502002 0.83728808 0.22848046 4278821823
-1.1469938 0.83478981 0.22515219 4278821823
-1.1380507 0.83430159 0.22206318 4278821823
-1.1215861 0.83687675 0.22493465 4278821823
-1.1176598 0.83435887 0.22524653 4278821823
-1.1623836 0.84980434 0.22441384 4278821823
-1.1539891 0.84582174 0.22568259 4278821823
-1.1477876 0.84404647 0.22459581 4278821823
-1.1387624 0.84004259 0.22194174 4278821823
-1.1234254 0.84536225 0.22501811 4278821823
-1.1179298 0.84380305 0.22607927 4278821823
-1.173268 0.85382867 0.22861421 4278821823
-1.1632596 0.85603595 0.22474109 4278821823
-1.1554853 0.85516292 0.22440624 4278821823
-1.1490006 0.85407305 0.22568053 4278821823
-1.131333 0.8571257 0.22331822 4278821823
-1.125697 0.85450351 0.22497794 4278821823
-1.1189485 0.85356963 0.22799395 4278821823
-1.1709737 0.86827004 0.22346985 4278821823
-1.1643211 0.86587322 0.22534473 4278821823
-1.1592834 0.86447829 0.22490203 4278821823
-1.1323159 0.86502534 0.22654167 4278821823
-1.1272776 0.86251724 0.22491077 4278821823
-1.1190468 0.86348802 0.22410329 4278821823
-1.1708519 0.8729645 0.22575068 4278821823
-1.1673888 0.87254477 0.22547734 4278821823
-1.1429621 0.87605834 0.22553881 4278821823
-1.136634 0.87259269 0.22539888 4278821823
-1.1277344 0.87079436 0.22107492 4278821823
-1.1640105 0.88081616 0.22880661 4278821823
-1.1534028 0.88365793 0.224361 4278821823
-1.1476009 0.88194484 0.22586489 4278821823
-0.65670311 0.39711183 0.23836116 4278821823
-0.64606428 0.39820972 0.23833321 4278821823
-0.65660316 0.40507227 0.23513576 4278821823
-0.6463834 0.40528512 0.23618269 4278821823
-0.66087931 0.41557023 0.23097393 4278821823
-0.65336937 0.41306818 0.23523974 4278821823
-0.64532089 0.41576323 0.23599885 4278821823
-0.66126817 0.42398381 0.23171952 4278821823
-0.65646583 0.42478418 0.23586792 4278821823
-0.64480096 0.42510429 0.23551743 4278821823
-0.65567738 0.43597662 0.23535037 4278821823
-0.64430255 0.43479863 0.2354546 4278821823
-0.63935286 0.43598861 0.23620509 4278821823
-0.65249425 0.44663489 0.23476082 4278821823
-0.64406615 0.44486889 0.23472732 4278821823
-0.63946772 0.44578487 0.23594794 4278821823
-0.67261958 0.45989871 0.23360078 4278821823
-0.65276051 0.45594591 0.23329279 4278821823
-0.6443764 0.45495698 0.23527835 4278821823
-0.63986242 0.45128345 0.23655814 4278821823
-0.67459893 0.46612841 0.23477995 4278821823
-0.65233487 0.46757457 0.2321949 4278821823
-0.64647704 0.46478978 0.23549803 4278821823
-0.7216869 0.47938845 0.23390366 4278821823
-0.71500725 0.47731718 0.23361582 4278821823
-0.70328665 0.47727191 0.23368116 4278821823
-0.69454861 0.47372121 0.23648667 4278821823
-0.68430877 0.47270334 0.23503934 4278821823
-0.67444968 0.47682169 0.23256898 4278821823
-0.66326392 0.47815579 0.23389208 4278821823
-0.65519035 0.4746888 0.23524375 4278821823
-0.648386 0.47173068 0.23764159 4278821823
-0.88436073 0.48798186 0.23101997 4278821823
-0.87123108 0.48883736 0.23047388 4278821823
-0.83315694 0.48922473 0.23276782 4278821823
-0.8242377 0.48757648 0.23191351 4278821823
-0.81340998 0.48748845 0.23387131 4278821823
-0.8053329 0.4881821 0.23667929 4278821823
-0.79941666 0.48992515 0.2350314 4278821823
-0.78362787 0.48908967 0.23577316 4278821823
-0.77676296 0.48961276 0.2325163 4278821823
-0.76180601 0.48873058 0.23925006 4278821823
-0.75398654 0.48772311 0.23579085 4278821823
-0.74663812 0.48542708 0.23503689 4278821823
-0.73542851 0.48351863 0.23510249 4278821823
-0.72370064 0.48294649 0.2360549 4278821823
-0.71282494 0.48784137 0.23318367 4278821823
-0.7050792 0.48930612 0.23368843 4278821823
-0.69491255 0.48790047 0.23414262 4278821823
-0.6848942 0.48683479 0.23534265 4278821823
-0.67476648 0.48441666 0.23521531 4278821823
-0.66694754 0.48181015 0.23612157 4278821823
-0.65932459 0.48103657 0.23893638 4278821823
-1.1341927 0.49905276 0.23690751 4278821823
-1.1238775 0.49848524 0.23461419 4278821823
-1.1132631 0.49633515 0.23396939 4278821823
-1.1046648 0.49583405 0.23573078 4278821823
-1.0934176 0.49589825 0.23441166 4278821823
-1.0831385 0.49779776 0.23475499 4278821823
-1.072309 0.49770945 0.23249972 4278821823
-1.0653124 0.49684349 0.23529036 4278821823
-1.0572762 0.49798107 0.23459697 4278821823
-1.044621 0.49733976 0.23486787 4278821823
-1.0345052 0.49743423 0.23441613 4278821823
-1.0245509 0.49699208 0.23524292 4278821823
-1.017441 0.49449068 0.23289903 4278821823
-1.0046744 0.49871418 0.2365606 4278821823
-0.9950555 0.49897572 0.23484282 4278821823
-0.98544389 0.49753895 0.23295557 4278821823
-0.97693276 0.4979741 0.23338383 4278821823
-0.96577495 0.49859086 0.23456867 4278821823
-0.95435983 0.49784449 0.23373739 4278821823
-0.94389874 0.4977788 0.23484154 4278821823
-0.93505263 0.49800953 0.23289672 4278821823
-0.92499399 0.49721172 0.23378205 4278821823
-0.9146328 0.49631014 0.2333201 4278821823
-0.90563834 0.49424011 0.23586822 4278821823
-0.89481795 0.49440795 0.23502256 4278821823
-0.88413984 0.49603027 0.23412625 4278821823
-0.87319911 0.49743688 0.23528475 4278821823
-0.86494827 0.49701914 0.23440585 4278821823
-0.8543914 0.49768499 0.23353615 4278821823
-0.84455878 0.49743202 0.23415653 4278821823
-0.83532119 0.49785566 0.23458181 4278821823
-0.82459325 0.49693137 0.23423044 4278821823
-0.81464601 0.4966436 0.23393621 4278821823
-0.80498129 0.49732354 0.23430434 4278821823
-0.79454923 0.49692905 0.23428161 4278821823
-0.78523034 0.4967941 0.23443468 4278821823
-0.77507257 0.49697077 0.23468722 4278821823
-0.7651605 0.49603906 0.23509775 4278821823
-0.75506568 0.49548542 0.23488399 4278821823
-0.74475467 0.49543411 0.23496345 4278821823
-0.73497683 0.49480885 0.23491666 4278821823
-0.72469604 0.49415654 0.23513396 4278821823
-0.7155624 0.49231124 0.23508938 4278821823
-0.70574337 0.49161568 0.23578167 4278821823
-0.69614547 0.49084452 0.23727588 4278821823
-0.68791544 0.49116671 0.23923966 4278821823
-1.1346326 0.50214678 0.23753053 4278821823
-1.1242956 0.50200605 0.23517671 4278821823
-1.1134125 0.5059548 0.23359802 4278821823
-1.1049072 0.50685543 0.23336558 4278821823
-1.0947875 0.50689363 0.23344439 4278821823
-1.083505 0.50725907 0.2345867 4278821823
-1.0745006 0.50734884 0.23380385 4278821823
-1.0657194 0.50647813 0.23524164 4278821823
-1.0557765 0.50587523 0.23402691 4278821823
-1.0445825 0.50659585 0.23514588 4278821823
-1.0345834 0.50669235 0.23461795 4278821823
-1.0239551 0.50740993 0.23454235 4278821823
-1.0146222 0.50639749 0.23443379 4278821823
-1.004231 0.50622874 0.23429359 4278821823
-0.99454415 0.5059579 0.23553719 4278821823
-0.98499584 0.50572741 0.23468247 4278821823
-0.97521633 0.50606489 0.23468927 4278821823
-0.96492088 0.50520647 0.23551074 4278821823
-0.95495552 0.50468439 0.23488927 4278821823
-0.94501305 0.50439668 0.23538563 4278821823
-0.93550372 0.50440001 0.23493449 4278821823
-0.92427516 0.50407338 0.23561133 4278821823
-0.91517955 0.50464749 0.23516352 4278821823
-0.90451699 0.50472265 0.23531847 4278821823
-0.89524418 0.50396264 0.23499906 4278821823
-0.88506567 0.50355035 0.23506694 4278821823
-0.87479037 0.50290644 0.23552482 4278821823
-0.86528707 0.50188035 0.23502186 4278821823
-0.85440129 0.50185728 0.23568894 4278821823
-0.84591699 0.50160074 0.23623727 4278821823
-0.83566624 0.50188351 0.23596774 4278821823
-0.82342553 0.50160122 0.23642384 4278821823
-0.81424636 0.50122851 0.2368962 4278821823
-0.80605286 0.50135273 0.23757815 4278821823
-0.79661572 0.50125384 0.23821451 4278821823
-0.78429562 0.50095826 0.23719361 4278821823
-0.7745986 0.50122648 0.23703593 4278821823
-0.76656651 0.50030673 0.23755963 4278821823
-0.7561456 0.50036764 0.23977931 4278821823
-1.1222252 0.51506394 0.23599547 4278821823
-1.1139816 0.51228017 0.23516113 4278821823
-1.1057552 0.51191068 0.23632446 4278821823
-1.0953021 0.5113439 0.23622029 4278821823
-1.0840282 0.51179039 0.23649664 4278821823
-1.0755401 0.51142025 0.23727652 4278821823
-1.065716 0.51181597 0.2367667 4278821823
-1.0558618 0.51087403 0.23633118 4278821823
-1.0451003 0.51130986 0.23730856 4278821823
-1.0361252 0.51110291 0.23637104 4278821823
-1.0236864 0.51189286 0.2369798 4278821823
-1.0135498 0.51157331 0.23791087 4278821823
-1.003745 0.51149142 0.23857568 4278821823
-0.99871147 0.51140237 0.23636098 4278821823
-0.98230213 0.51146448 0.23899649 4278821823
-0.97278798 0.51060379 0.23932233 4278821823
-0.96410584 0.51046145 0.23715378 4278821823
-0.95995694 0.51053917 0.23755564 4278821823
-0.93107551 0.51163095 0.23918112 4278821823
-0.92494851 0.51170111 0.23606102 4278821823
-0.91746187 0.51073706 0.23821785 4278821823
-1.1056365 0.54843134 0.23490059 4278821823
-1.1042428 0.55318725 0.23541893 4278821823
-1.09645 0.55767018 0.2346416 4278821823
-1.0892955 0.55907887 0.23519202 4278821823
-1.1002388 0.566984 0.23544376 4278821823
-1.0973788 0.56376785 0.23486346 4278821823
-1.0856709 0.56522882 0.23505396 4278821823
-1.0728803 0.56867075 0.23512885 4278821823
-1.0675979 0.56824946 0.23624898 4278821823
-1.1013798 0.57495952 0.23536578 4278821823
-1.0952462 0.57412934 0.2346295 4278821823
-1.0811059 0.57710183 0.23234138 4278821823
-1.0728713 0.57545739 0.2345542 4278821823
-1.0679699 0.57462913 0.23490404 4278821823
-1.1024168 0.58282113 0.23397607 4278821823
-1.0942442 0.58573103 0.23541999 4278821823
-1.0811337 0.58545834 0.23178779 4278821823
-1.0729522 0.58495152 0.23557082 4278821823
-1.0691364 0.58449179 0.2343207 4278821823
-1.1061075 0.59830803 0.23558971 4278821823
-1.0951911 0.59496194 0.23551029 4278821823
-1.0737345 0.59472007 0.23453338 4278821823
-1.0686402 0.59570688 0.2358164 4278821823
-1.1046922 0.60647404 0.23550691 4278821823
-1.0955939 0.60405141 0.23448996 4278821823
-1.0806713 0.60815239 0.23916122 4278821823
-1.0746158 0.60503304 0.2348597 4278821823
-1.0683094 0.60513002 0.23535502 4278821823
-1.1057578 0.61395711 0.23524694 4278821823
-1.095964 0.61413413 0.23404869 4278821823
-1.0815976 0.61606508 0.23564228 4278821823
-1.0749793 0.61497265 0.23467875 4278821823
-1.069226 0.6140781 0.23501229 4278821823
-1.1106398 0.62500232 0.23610945 4278821823
-1.1063416 0.62178761 0.23507152 4278821823
-1.0977458 0.62451506 0.23343116 4278821823
-1.0814976 0.6268127 0.23321681 4278821823
-1.0764016 0.62522888 0.23563701 4278821823
-1.0690928 0.62173223 0.23449416 4278821823
-1.1110761 0.63620657 0.23558617 4278821823
-1.103343 0.6351335 0.23490745 4278821823
-1.0972412 0.6314677 0.23371866 4278821823
-1.0815941 0.63522637 0.23563907 4278821823
-1.0765953 0.63540184 0.23567337 4278821823
-1.0695879 0.6335392 0.23810944 4278821823
-1.1120957 0.64471847 0.23535831 4278821823
-1.103142 0.64655119 0.23480555 4278821823
-1.0816935 0.64616698 0.23558371 4278821823
-1.0769536 0.64527327 0.2349747 4278821823
-1.1136384 0.6553604 0.23425709 4278821823
-1.104041 0.65398461 0.23581338 4278821823
-1.0971782 0.65762269 0.23716591 4278821823
-1.0828592 0.65563279 0.23519097 4278821823
-1.0786136 0.65329647 0.23430835 4278821823
-1.114187 0.66743678 0.23535495 4278821823
-1.1055043 0.66543305 0.23543748 4278821823
-1.0931091 0.66355348 0.23798914 4278821823
-1.0844494 0.66452456 0.23544595 4278821823
-1.0778952 0.66146064 0.23156095 4278821823
-1.1200285 0.67811644 0.23084144 4278821823
-1.1155902 0.67476112 0.23444262 4278821823
-1.1066858 0.67373484 0.23488303 4278821823
-1.0909673 0.67518008 0.23347175 4278821823
-1.0859735 0.67520988 0.23508933 4278821823
-1.1207078 0.68618613 0.23415384 4278821823
-1.1141648 0.68572563 0.23570685 4278821823
-1.1084831 0.68372464 0.2350277 4278821823
-1.0916069 0.6863817 0.23533162 4278821823
-1.0867664 0.68445015 0.23458172 4278821823
-1.0787874 0.6895743 0.23052871 4278821823
-1.1214079 0.69550675 0.23465253 4278821823
-1.116565 0.69458443 0.23537131 4278821823
-1.1064185 0.6946553 0.2332021 4278821823
-1.0928007 0.69411206 0.23409934 4278821823
-1.0864931 0.69462252 0.2349661 4278821823
-1.0796003 0.69214374 0.23211607 4278821823
-1.1219511 0.70718145 0.23614967 4278821823
-1.1176182 0.70352584 0.2350803 4278821823
-1.1018525 0.70582771 0.2324198 4278821823
-1.0923431 0.70601904 0.2349578 4278821823
-1.0876529 0.70462179 0.23588747 4278821823
-1.1240187 0.71572316 0.23482575 4278821823
-1.1167178 0.71462047 0.23536752 4278821823
-1.1006539 0.7151674 0.23219632 4278821823
-1.0936128 0.71546549 0.23472559 4278821823
-1.0886817 0.71258193 0.23512134 4278821823
-1.1302271 0.72414726 0.23437801 4278821823
-1.1242579 0.72445297 0.23420875 4278821823
-1.1180956 0.7249186 0.23639134 4278821823
-1.1010401 0.72533357 0.23630363 4278821823
-1.095158 0.72492886 0.23490179 4278821823
-1.0892103 0.72210765 0.23913237 4278821823
-1.1323031 0.7389003 0.23957899 4278821823
-1.1250269 0.73475087 0.23495607 4278821823
-1.1182454 0.73012698 0.23722725 4278821823
-1.1024897 0.73637974 0.23531514 4278821823
-1.0960567 0.73433846 0.23444696 4278821823
-1.0886425 0.73848289 0.23830073 4278821823
-1.1319108 0.74690127 0.23602122 4278821823
-1.1245764 0.74502599 0.23450832 4278821823
-1.1018084 0.74641418 0.23478752 4278821823
-1.0966909 0.74456155 0.23528636 4278821823
-1.0890919 0.74223477 0.23629935 4278821823
-1.1327147 0.75471127 0.23483384 4278821823
-1.1252868 0.75370443 0.23387945 4278821823
-1.1137091 0.75606042 0.23257767 4278821823
-1.103518 0.75551879 0.23470424 4278821823
-1.0982673 0.75442338 0.23557059 4278821823
-1.1340021 0.76570797 0.23498215 4278821823
-1.1263747 0.76391321 0.23525427 4278821823
-1.1111672 0.76623917 0.23541981 4278821823
-1.1046054 0.76498258 0.23488352 4278821823
-1.0985677 0.7648958 0.23652971 4278821823
-1.1340356 0.77548635 0.23528735 4278821823
-1.1276535 0.77225089 0.23422575 4278821823
-1.111213 0.77632689 0.23492768 4278821823
-1.10597 0.77495807 0.23496807 4278821823
-1.0992017 0.77329826 0.23502663 4278821823
-1.1350092 0.78473949 0.23510721 4278821823
-1.1116984 0.78559512 0.23467875 4278821823
-1.1071538 0.784473 0.2349478 4278821823
-1.141495 0.7974925 0.23101293 4278821823
-1.1341103 0.79587203 0.2352659 4278821823
-1.129544 0.79314524 0.2353937 4278821823
-1.1127354 0.79504967 0.23505607 4278821823
-1.1076429 0.79501945 0.23475347 4278821823
-1.1415262 0.80696988 0.23473528 4278821823
-1.1352109 0.80440408 0.23568219 4278821823
-1.1206377 0.80864054 0.23521665 4278821823
-1.113342 0.80566055 0.23589508 4278821823
-1.1079292 0.80255997 0.23521864 4278821823
-1.1424621 0.81517017 0.23461868 4278821823
-1.1365224 0.81595725 0.2331562 4278821823
-1.1216651 0.81532443 0.23372269 4278821823
-1.1144763 0.81477863 0.2356303 4278821823
-1.1086285 0.81447494 0.23283096 4278821823
-1.1443819 0.82583016 0.23476718 4278821823
-1.1371908 0.82217932 0.23355961 4278821823
-1.1214073 0.82652032 0.23701398 4278821823
-1.1158761 0.82494056 0.23457071 4278821823
-1.1091225 0.82262635 0.23413455 4278821823
-1.1522815 0.83748132 0.23575097 4278821823
-1.1469995 0.83411741 0.23473911 4278821823
-1.1310314 0.8386085 0.23932868 4278821823
-1.1227449 0.83596534 0.23514295 4278821823
-1.1175804 0.83353227 0.23348404 4278821823
-1.1757487 0.84920859 0.23838931 4278821823
-1.1625488 0.84758866 0.2354954 4278821823
-1.1543536 0.8454026 0.23505302 4278821823
-1.1486915 0.84360182 0.23520154 4278821823
-1.1311896 0.84206486 0.23743053 4278821823
-1.123641 0.84588885 0.23527312 4278821823
-1.1184595 0.84407967 0.23363793 4278821823
-1.1738646 0.85546911 0.23527548 4278821823
-1.1623873 0.8553623 0.23366776 4278821823
-1.1537156 0.85562181 0.23540753 4278821823
-1.1495645 0.85388732 0.23432675 4278821823
-1.1308535 0.85728389 0.23396379 4278821823
-1.1251017 0.85482663 0.23517431 4278821823
-1.1191398 0.85291624 0.23552139 4278821823
-1.1730715 0.86547279 0.23530738 4278821823
-1.163903 0.86574161 0.23443168 4278821823
-1.1566886 0.86299312 0.23513305 4278821823
-1.1342202 0.8658182 0.23476391 4278821823
-1.1271448 0.86208016 0.23536731 4278821823
-1.1193273 0.86044586 0.23871568 4278821823
-1.1703854 0.87041086 0.23128298 4278821823
-1.1637444 0.87511742 0.23485833 4278821823
-1.1433502 0.87620813 0.23534374 4278821823
-1.137243 0.87194341 0.23450625 4278821823
-1.1640915 0.88089812 0.23174481 4278821823
-1.1528494 0.88404524 0.23481366 4278821823
-1.1468853 0.88196421 0.23495483 4278821823
-0.64730597 0.38784349 0.24735217 4278821823
-0.66242176 0.39473808 0.24425186 4278821823
-0.65474343 0.39462161 0.24511567 4278821823
-0.6471796 0.39638922 0.24438319 4278821823
-0.66266298 0.40109715 0.24837786 4278821823
-0.65787828 0.40623501 0.24401188 4278821823
-0.64626282 0.40477943 0.24488543 4278821823
-0.65499026 0.41510037 0.24526344 4278821823
-0.64441377 0.41505817 0.24518038 4278821823
-0.63980252 0.41626772 0.24678175 4278821823
-0.65331894 0.42510164 0.24464263 4278821823
-0.64306456 0.42466328 0.24490346 4278821823
-0.63944536 0.42665312 0.2469548 4278821823
-0.65104008 0.43554544 0.24408846 4278821823
-0.64273965 0.43466014 0.24547561 4278821823
-0.63920665 0.43591589 0.24615464 4278821823
-0.65149671 0.44531783 0.24514125 4278821823
-0.64273036 0.44484007 0.2453192 4278821823
-0.6390633 0.44423354 0.24612868 4278821823
-0.65212208 0.4547469 0.24581261 4278821823
-0.64377272 0.45547825 0.24447076 4278821823
-0.6390202 0.4536534 0.24618301 4278821823
-0.6741423 0.46615937 0.24366353 4278821823
-0.66948211 0.465141 0.24752994 4278821823
-0.65169227 0.46752661 0.24550895 4278821823
-0.64558673 0.4649072 0.2448412 4278821823
-0.63898301 0.46090913 0.24891984 4278821823
-0.70517004 0.47911969 0.24504079 4278821823
-0.69573438 0.47597995 0.24521574 4278821823
-0.68353575 0.47339627 0.24503991 4278821823
-0.67339003 0.47599185 0.24440405 4278821823
-0.66323322 0.4786579 0.24489494 4278821823
-0.65461212 0.47542998 0.24532641 4278821823
-0.64841706 0.47185206 0.24467801 4278821823
-0.81224227 0.48928183 0.24493818 4278821823
-0.8061865 0.48972189 0.24463099 4278821823
-0.78636652 0.4889904 0.24008326 4278821823
-0.76506525 0.48851186 0.2426033 4278821823
-0.75372118 0.48798141 0.24204813 4278821823
-0.74451017 0.48656359 0.24504025 4278821823
-0.73524588 0.48567843 0.24595754 4278821823
-0.72457498 0.48485985 0.2451873 4278821823
-0.71446824 0.48645437 0.2453109 4278821823
-0.70346606 0.487322 0.24353448 4278821823
-0.69205338 0.48925462 0.24463715 4278821823
-0.68420172 0.48837519 0.24441122 4278821823
-0.67507088 0.48532838 0.24490082 4278821823
-0.66573828 0.48228174 0.24527428 4278821823
-0.65823817 0.48077148 0.24455985 4278821823
-1.1356058 0.49846986 0.24393634 4278821823
-1.1228559 0.49708083 0.24574944 4278821823
-1.1141524 0.4968327 0.24533744 4278821823
-1.105478 0.49706221 0.24399804 4278821823
-1.0948632 0.49810046 0.24534963 4278821823
-1.0857117 0.49752542 0.24399754 4278821823
-1.0773005 0.49996179 0.24838331 4278821823
-1.0665495 0.4992308 0.24551672 4278821823
-1.054217 0.49832213 0.24403934 4278821823
-1.0431417 0.49835142 0.24497692 4278821823
-1.0353619 0.49861297 0.24429142 4278821823
-1.0251679 0.49758577 0.24382108 4278821823
-1.0146581 0.49682337 0.24619794 4278821823
-1.0048497 0.49899662 0.24439967 4278821823
-0.99553424 0.4982447 0.24549757 4278821823
-0.98463297 0.49587163 0.2452538 4278821823
-0.97535831 0.49706727 0.24506034 4278821823
-0.96570557 0.49890843 0.2434184 4278821823
-0.95461762 0.499118 0.24388029 4278821823
-0.94441557 0.49784818 0.24430609 4278821823
-0.93310821 0.49770612 0.24530485 4278821823
-0.92544019 0.49816704 0.2436057 4278821823
-0.91491306 0.49652079 0.24361031 4278821823
-0.90533412 0.49632984 0.24533172 4278821823
-0.89466476 0.49604115 0.24573416 4278821823
-0.88532305 0.49643609 0.24409671 4278821823
-0.87372464 0.49649882 0.24625361 4278821823
-0.86519122 0.49616197 0.2449346 4278821823
-0.85581523 0.49631703 0.24440575 4278821823
-0.84314072 0.49738652 0.24653424 4278821823
-0.83476532 0.49820143 0.24322198 4278821823
-0.8273958 0.49812204 0.24260044 4278821823
-0.8150444 0.49686179 0.24258828 4278821823
-0.80380982 0.49899042 0.24142236 4278821823
-0.79589397 0.49810874 0.24318349 4278821823
-0.78304631 0.49748182 0.24232672 4278821823
-0.77448738 0.49789795 0.24367557 4278821823
-0.76443821 0.49791399 0.24363385 4278821823
-0.75441575 0.49728599 0.24521044 4278821823
-0.74478215 0.49627098 0.2450272 4278821823
-0.73473352 0.49622986 0.24465096 4278821823
-0.72452313 0.49562719 0.24510553 4278821823
-0.7149471 0.49430579 0.24514201 4278821823
-0.70507431 0.49306688 0.24510214 4278821823
-0.69533294 0.49196053 0.24541247 4278821823
-0.68641317 0.49116483 0.24638805 4278821823
-1.1349334 0.50159979 0.24371365 4278821823
-1.1225332 0.50208241 0.24756937 4278821823
-1.1137425 0.5042358 0.24335897 4278821823
-1.1049715 0.50700885 0.24523957 4278821823
-1.0961424 0.50779259 0.24328089 4278821823
-1.0848007 0.50770813 0.24470539 4278821823
-1.0751541 0.50708365 0.24485655 4278821823
-1.0645394 0.50696331 0.24523112 4278821823
-1.0547382 0.50552869 0.24451156 4278821823
-1.0440768 0.50646847 0.24403287 4278821823
-1.0364298 0.50741553 0.2433062 4278821823
-1.0255128 0.50634158 0.24458474 4278821823
-1.0153185 0.50698435 0.24392258 4278821823
-1.0052283 0.50732344 0.24401125 4278821823
-0.99470651 0.50632781 0.24451499 4278821823
-0.98587781 0.50582457 0.24489045 4278821823
-0.97539818 0.50653023 0.24437009 4278821823
-0.9647646 0.50654781 0.24438106 4278821823
-0.95469677 0.50569683 0.24576077 4278821823
-0.94524628 0.50549453 0.2447093 4278821823
-0.9350673 0.50634068 0.24430275 4278821823
-0.92483592 0.50623953 0.24498121 4278821823
-0.91494399 0.50647575 0.24537233 4278821823
-0.90456921 0.50698841 0.24507132 4278821823
-0.895024 0.5059129 0.24473017 4278821823
-0.8850069 0.50549763 0.24515256 4278821823
-0.87509525 0.50460869 0.24502721 4278821823
-0.86508274 0.50407851 0.24475381 4278821823
-0.85454506 0.50332618 0.24514097 4278821823
-0.84538722 0.5024904 0.24549474 4278821823
-0.83577079 0.50285995 0.24515332 4278821823
-0.82484645 0.50240541 0.24529812 4278821823
-0.81486076 0.50269675 0.24540669 4278821823
-0.8051101 0.50252402 0.24544325 4278821823
-0.79475105 0.50219387 0.24575742 4278821823
-0.7848658 0.50185841 0.24569638 4278821823
-0.77596509 0.50149733 0.24582629 4278821823
-0.76558435 0.50109363 0.24687663 4278821823
-0.75538552 0.50078326 0.24758708 4278821823
-0.74603021 0.50050157 0.24816623 4278821823
-0.7318905 0.50014818 0.24902417 4278821823
-0.72598445 0.50108308 0.2490045 4278821823
-1.1221876 0.51315939 0.24451393 4278821823
-1.1133122 0.51319665 0.2444829 4278821823
-1.1042832 0.51315784 0.24502166 4278821823
-1.0958862 0.51227808 0.24538964 4278821823
-1.0847058 0.51261121 0.24584033 4278821823
-1.0760497 0.51230025 0.24428909 4278821823
-1.0642158 0.51261431 0.24665751 4278821823
-1.0540833 0.51205683 0.24565284 4278821823
-1.0450751 0.51144582 0.24650641 4278821823
-1.0345525 0.51165152 0.24627799 4278821823
-1.0262086 0.51216519 0.24624154 4278821823
-1.0157378 0.51180923 0.24640957 4278821823
-1.0045267 0.51138729 0.24530563 4278821823
-0.99486595 0.51127994 0.24732755 4278821823
-0.98368859 0.51094449 0.24493511 4278821823
-0.97526246 0.5117349 0.24537219 4278821823
-0.96608078 0.5114423 0.24581254 4278821823
-0.95556182 0.51187462 0.24784255 4278821823
-0.94452703 0.51097041 0.2480953 4278821823
-0.93427181 0.51097977 0.24720831 4278821823
-0.92506129 0.51095217 0.24618413 4278821823
-0.91651154 0.5104509 0.24179746 4278821823
-1.1108508 0.55183625 0.24826689 4278821823
-1.1029892 0.5552513 0.24499597 4278821823
-1.0968999 0.55658293 0.24400787 4278821823
-1.100548 0.56466794 0.24507628 4278821823
-1.0962321 0.56436306 0.24430731 4278821823
-1.0841365 0.56331158 0.24608429 4278821823
-1.0740756 0.56713265 0.24486355 4278821823
-1.0684428 0.56796581 0.24257854 4278821823
-1.1011301 0.57612693 0.2448367 4278821823
-1.0959563 0.574462 0.24444985 4278821823
-1.0727959 0.57517004 0.24536595 4278821823
-1.068925 0.57465029 0.24419747 4278821823
-1.1025798 0.58516443 0.24502441 4278821823
-1.0949409 0.58512443 0.24468882 4278821823
-1.0730944 0.584777 0.24512587 4278821823
-1.0687207 0.58450252 0.24558561 4278821823
-1.1054072 0.59526592 0.24588449 4278821823
-1.095866 0.59572893 0.24336414 4278821823
-1.0813249 0.59950757 0.2469532 4278821823
-1.0737967 0.59474576 0.24434452 4278821823
-1.0675701 0.59518802 0.24585426 4278821823
-1.1035137 0.60591072 0.24559571 4278821823
-1.0961714 0.60300988 0.24484731 4278821823
-1.0811615 0.60408771 0.24417245 4278821823
-1.0741775 0.60581994 0.24558774 4278821823
-1.0677565 0.6040529 0.24550822 4278821823
-1.1102591 0.61682034 0.24589784 4278821823
-1.1060117 0.61431861 0.24533391 4278821823
-1.0807469 0.6171031 0.24334514 4278821823
-1.0749189 0.61502475 0.24506345 4278821823
-1.069406 0.61320251 0.24431928 4278821823
-1.1130482 0.62412304 0.24447747 4278821823
-1.1053251 0.6234166 0.24424936 4278821823
-1.0944862 0.62583667 0.24572253 4278821823
-1.0814989 0.62658179 0.24320844 4278821823
-1.0757911 0.62482542 0.24545681 4278821823
-1.068198 0.62326741 0.24840575 4278821823
-1.1115043 0.63534141 0.24445039 4278821823
-1.1038797 0.63427967 0.24440432 4278821823
-1.0948184 0.63103533 0.24371657 4278821823
-1.0819772 0.63590038 0.24534872 4278821823
-1.0766946 0.63480091 0.24456747 4278821823
-1.0698674 0.63720244 0.24872854 4278821823
-1.1117193 0.64451081 0.24516283 4278821823
-1.1039373 0.64539754 0.24595571 4278821823
-1.0824397 0.64588869 0.2442455 4278821823
-1.0766977 0.64523453 0.244938 4278821823
-1.113398 0.65596122 0.24556786 4278821823
-1.1051575 0.65411097 0.24469486 4278821823
-1.0973941 0.65772659 0.24018136 4278821823
-1.0827968 0.65497893 0.24323045 4278821823
-1.0778039 0.65440524 0.24596214 4278821823
-1.11383 0.66482395 0.2473807 4278821823
-1.1068821 0.66513574 0.24487166 4278821823
-1.0945796 0.66284877 0.24307422 4278821823
-1.0837375 0.66530484 0.24370545 4278821823
-1.0781574 0.66378915 0.24722691 4278821823
-1.1154933 0.67452258 0.2464612 4278821823
-1.107197 0.67382222 0.24507737 4278821823
-1.0910217 0.67729545 0.24508445 4278821823
-1.0836061 0.67518306 0.24485718 4278821823
-1.0785627 0.67403781 0.24727571 4278821823
-1.1210815 0.68851221 0.24208015 4278821823
-1.1137044 0.68588984 0.24524108 4278821823
-1.1089243 0.68178129 0.2436132 4278821823
-1.0909861 0.68690467 0.24495395 4278821823
-1.0848384 0.68476593 0.24576743 4278821823
-1.0790255 0.68096352 0.2469735 4278821823
-1.1221323 0.6972568 0.24590804 4278821823
-1.1148851 0.69498765 0.24579513 4278821823
-1.0910038 0.69590759 0.24564724 4278821823
-1.0863887 0.69519711 0.24540925 4278821823
-1.1218663 0.70535028 0.24589063 4278821823
-1.1154233 0.7039122 0.24458103 4278821823
-1.0912377 0.70713472 0.24588707 4278821823
-1.0872067 0.70448166 0.24477261 4278821823
-1.1223447 0.71529698 0.24472637 4278821823
-1.1154256 0.71345425 0.24522515 4278821823
-1.1000664 0.71800232 0.24109161 4278821823
-1.0930188 0.71522325 0.24486358 4278821823
-1.0877864 0.71310854 0.24532425 4278821823
-1.1237727 0.72512478 0.24487807 4278821823
-1.1182861 0.72401828 0.24530843 4278821823
-1.1006176 0.72818947 0.24676037 4278821823
-1.0948554 0.72514623 0.2448795 4278821823
-1.0885915 0.72326982 0.24753559 4278821823
-1.1323411 0.73678732 0.24452996 4278821823
-1.1238163 0.73490942 0.24519217 4278821823
-1.1193094 0.73305726 0.24460016 4278821823
-1.1014557 0.73590899 0.24423957 4278821823
-1.0950197 0.73541367 0.2451788 4278821823
-1.0893946 0.73280656 0.24329346 4278821823
-1.1330544 0.74505401 0.2458677 4278821823
-1.1248151 0.7459296 0.24418974 4278821823
-1.1102853 0.74955368 0.24619049 4278821823
-1.1019527 0.74638957 0.24509168 4278821823
-1.0966276 0.74435091 0.24556538 4278821823
-1.0890514 0.74319702 0.24624202 4278821823
-1.1335497 0.75514871 0.24491787 4278821823
-1.1257489 0.7539708 0.24431768 4278821823
-1.1124086 0.75653046 0.24411742 4278821823
-1.1032259 0.75563401 0.24474268 4278821823
-1.0978556 0.75334871 0.24411388 4278821823
-1.1344776 0.76562846 0.24591932 4278821823
-1.1271281 0.76459748 0.24447367 4278821823
-1.1115444 0.76746047 0.24250212 4278821823
-1.1044792 0.76522779 0.24536932 4278821823
-1.0982368 0.76465249 0.24408595 4278821823
-1.1344515 0.77516663 0.24508174 4278821823
-1.1261464 0.77154416 0.24260408 4278821823
-1.1112937 0.77616757 0.24425028 4278821823
-1.1056657 0.77498847 0.2453994 4278821823
-1.0990686 0.77211654 0.24226511 4278821823
-1.1421337 0.78809381 0.24832153 4278821823
-1.1355217 0.78484905 0.24492395 4278821823
-1.1113771 0.78667885 0.24359104 4278821823
-1.10669 0.78462809 0.2454336 4278821823
-1.1416092 0.79811221 0.24687362 4278821823
-1.1355108 0.79497838 0.24498278 4278821823
-1.1299534 0.79256487 0.24251823 4278821823
-1.1124507 0.79543692 0.2448011 4278821823
-1.1082188 0.7940768 0.24524979 4278821823
-1.0994275 0.79729009 0.24962527 4278821823
-1.1419623 0.80583292 0.24510096 4278821823
-1.135178 0.80315304 0.24327117 4278821823
-1.1208856 0.80875301 0.24844646 4278821823
-1.1138235 0.80530822 0.24430622 4278821823
-1.1083447 0.80249035 0.24413018 4278821823
-1.1433614 0.81570399 0.24424505 4278821823
-1.1349378 0.81493545 0.24459103 4278821823
-1.121513 0.81562304 0.24585116 4278821823
-1.115279 0.81444198 0.24457702 4278821823
-1.1089154 0.81636679 0.24484642 4278821823
-1.1501921 0.82894272 0.24490184 4278821823
-1.1449841 0.82539445 0.24478017 4278821823
-1.1370919 0.82321501 0.24629149 4278821823
-1.1215694 0.82657957 0.24580225 4278821823
-1.1172637 0.82399654 0.24529397 4278821823
-1.1093774 0.82155085 0.24176008 4278821823
-1.153504 0.83811599 0.24459644 4278821823
-1.1466635 0.83492404 0.24525447 4278821823
-1.1227252 0.8350299 0.244977 4278821823
-1.1181624 0.83588141 0.24588318 4278821823
-1.1739621 0.84933567 0.24500096 4278821823
-1.1650221 0.84667385 0.24432895 4278821823
-1.1544453 0.84549034 0.24446219 4278821823
-1.1486676 0.84361088 0.24508636 4278821823
-1.1237451 0.84544539 0.24496366 4278821823
-1.1185027 0.84354502 0.24625851 4278821823
-1.1800828 0.85026759 0.24936214 4278821823
-1.1748173 0.85612637 0.24456072 4278821823
-1.162336 0.85647088 0.24475561 4278821823
-1.1539632 0.85380709 0.24628177 4278821823
-1.1498958 0.85278231 0.24279428 4278821823
-1.1308297 0.85712618 0.24422759 4278821823
-1.1250762 0.85534191 0.24568941 4278821823
-1.1186426 0.85436225 0.24311522 4278821823
-1.1718271 0.86644721 0.2462655 4278821823
-1.1622987 0.8645457 0.24474899 4278821823
-1.155157 0.86207867 0.24485289 4278821823
-1.1322957 0.86551332 0.24520057 4278821823
-1.1269604 0.86251014 0.24606802 4278821823
-1.1197562 0.86011457 0.24309215 4278821823
-1.1752728 0.87396634 0.24633847 4278821823
-1.1625333 0.8726697 0.24439853 4278821823
-1.1427461 0.87538451 0.24599272 4278821823
-1.1357567 0.87228805 0.2448452 4278821823
-1.1286643 0.87038761 0.2420669 4278821823
-1.1633282 0.88502216 0.2447675 4278821823
-1.1543069 0.88371509 0.24559295 4278821823
-1.147181 0.88170934 0.2426638 4278821823
-0.65091467 0.38761073 0.25244451 4278821823
-0.64685392 0.3884685 0.25395572 4278821823
-0.66155022 0.39511216 0.25380403 4278821823
-0.6549412 0.39615041 0.2561256 4278821823
-0.64618969 0.39590839 0.25479367 4278821823
-0.66090083 0.40352783 0.25269347 4278821823
-0.65858024 0.40550014 0.25579998 4278821823
-0.6447894 0.40503049 0.25523174 4278821823
-0.63971883 0.40192878 0.2519041 4278821823
-0.65465766 0.41511089 0.25583646 4278821823
-0.64315939 0.41515884 0.25523669 4278821823
-0.63962495 0.41905719 0.25304848 4278821823
-0.65165907 0.42430478 0.25498098 4278821823
-0.64309734 0.42533258 0.25464788 4278821823
-0.63933402 0.42688769 0.25649855 4278821823
-0.65127987 0.43570992 0.25635836 4278821823
-0.64227587 0.43432227 0.25429925 4278821823
-0.63899797 0.43600965 0.25335243 4278821823
-0.65216333 0.44537067 0.25475872 4278821823
-0.64291334 0.44543523 0.25332457 4278821823
-0.6387915 0.44461951 0.25616467 4278821823
-0.65216631 0.45596936 0.2556231 4278821823
-0.64345896 0.45563677 0.25592059 4278821823
-0.63881826 0.45348081 0.25529328 4278821823
-0.67496842 0.46444669 0.25469917 4278821823
-0.66965425 0.46452945 0.25144926 4278821823
-0.65117615 0.46842661 0.25639901 4278821823
-0.64534318 0.46531555 0.25488779 4278821823
-0.63948357 0.46371716 0.25864139 4278821823
-0.71308148 0.47857696 0.25517765 4278821823
-0.7060774 0.4785341 0.25504392 4278821823
-0.69618022 0.47583172 0.2548973 4278821823
-0.68407059 0.4746401 0.25435892 4278821823
-0.67655051 0.4730323 0.25503984 4278821823
-0.66189796 0.47812274 0.25590986 4278821823
-0.65518373 0.47523245 0.25508413 4278821823
-0.64848119 0.47201347 0.25521773 4278821823
-0.75198579 0.4899568 0.25538081 4278821823
-0.74532872 0.48804006 0.25266472 4278821823
-0.73756194 0.48722491 0.25533161 4278821823
-0.72467965 0.48447374 0.25522077 4278821823
-0.71578616 0.48194528 0.25393632 4278821823
-0.70477819 0.48888528 0.25140485 4278821823
-0.69484377 0.48710209 0.25569218 4278821823
-0.68308079 0.48850989 0.25432858 4278821823
-0.67451555 0.48613617 0.25479925 4278821823
-0.66583264 0.48258686 0.25518975 4278821823
-0.65895909 0.48079044 0.2521306 4278821823
-1.1362839 0.49888101 0.25459707 4278821823
-1.117131 0.49891841 0.25586244 4278821823
-1.1063224 0.49837232 0.25336599 4278821823
-1.094918 0.49841708 0.25385642 4278821823
-1.0868477 0.49939764 0.25502238 4278821823
-1.0601096 0.49738353 0.25432402 4278821823
-1.0521077 0.49815893 0.25411865 4278821823
-1.0435154 0.49923199 0.2536158 4278821823
-1.0359397 0.49964613 0.25325871 4278821823
-1.0254036 0.49793574 0.25438797 4278821823
-1.01548 0.49855649 0.25357026 4278821823
-1.0049419 0.49940765 0.25586072 4278821823
-0.99616671 0.49817404 0.25469065 4278821823
-0.98544741 0.49644083 0.25509974 4278821823
-0.9773078 0.49601954 0.25631839 4278821823
-0.9690969 0.49615681 0.2551446 4278821823
-0.95445299 0.49870723 0.25009447 4278821823
-0.94442868 0.49895674 0.25666043 4278821823
-0.93403924 0.49785349 0.25453374 4278821823
-0.92404604 0.49513942 0.25465548 4278821823
-0.91565347 0.4969106 0.25386223 4278821823
-0.90497363 0.49871922 0.25419787 4278821823
-0.8933866 0.4982878 0.25487983 4278821823
-0.88537514 0.49783742 0.25502586 4278821823
-0.87573099 0.49747688 0.25498843 4278821823
-0.86509895 0.49753532 0.25382575 4278821823
-0.85490161 0.49778393 0.25336924 4278821823
-0.84495735 0.49713415 0.2558212 4278821823
-0.83676308 0.49821517 0.25435647 4278821823
-0.82429248 0.49576357 0.25599965 4278821823
-0.81506538 0.49329886 0.25512829 4278821823
-0.80303228 0.4962261 0.25440571 4278821823
-0.79555291 0.49739936 0.25361896 4278821823
-0.78253758 0.49793792 0.25497049 4278821823
-0.77457744 0.4980188 0.25317279 4278821823
-0.76379138 0.4985413 0.25452331 4278821823
-0.75588095 0.497747 0.25359988 4278821823
-0.7442205 0.49777731 0.25415385 4278821823
-0.7347458 0.49824369 0.25419185 4278821823
-0.72472471 0.4970223 0.25493851 4278821823
-0.71492338 0.4957152 0.255146 4278821823
-0.70504588 0.49393696 0.25519082 4278821823
-0.69508421 0.49225345 0.25504526 4278821823
-0.68583077 0.49118879 0.25496575 4278821823
-0.67758393 0.49076843 0.25656807 4278821823
-1.135952 0.50321549 0.25639653 4278821823
-1.1229972 0.50269866 0.25341955 4278821823
-1.1135654 0.50509512 0.25477797 4278821823
-1.1035342 0.50358379 0.25582898 4278821823
-1.0924822 0.5080803 0.25510085 4278821823
-1.0845624 0.5074653 0.25405389 4278821823
-1.0757947 0.50644517 0.25422487 4278821823
-1.0648851 0.50676465 0.25322697 4278821823
-1.0528964 0.50629157 0.25574079 4278821823
-1.0444424 0.50636083 0.25432262 4278821823
-1.0355446 0.50614381 0.25450188 4278821823
-1.0244894 0.5063495 0.25568849 4278821823
-1.0154625 0.5058623 0.25511846 4278821823
-1.0058579 0.50745714 0.25474986 4278821823
-0.99388468 0.50562781 0.25430393 4278821823
-0.98567092 0.50686681 0.25334662 4278821823
-0.97488147 0.50618911 0.2546677 4278821823
-0.96471024 0.50698674 0.25430146 4278821823
-0.95444351 0.50607216 0.25370058 4278821823
-0.94486171 0.50629175 0.25483951 4278821823
-0.93591946 0.50680488 0.25501856 4278821823
-0.92385226 0.50707442 0.25473344 4278821823
-0.91528773 0.50766164 0.25472501 4278821823
-0.90445971 0.50694448 0.25454557 4278821823
-0.895145 0.50639892 0.25504428 4278821823
-0.88483447 0.50714493 0.25425065 4278821823
-0.87487626 0.50668228 0.25448444 4278821823
-0.86530638 0.50526607 0.2549957 4278821823
-0.85435677 0.50551176 0.25507364 4278821823
-0.84432817 0.50381291 0.25491169 4278821823
-0.83509254 0.50426 0.25489625 4278821823
-0.82449394 0.50462186 0.25508511 4278821823
-0.81496805 0.5043934 0.25489795 4278821823
-0.8053754 0.50388157 0.25486302 4278821823
-0.79496676 0.5038377 0.25508326 4278821823
-0.78488046 0.50319678 0.25583476 4278821823
-0.77516609 0.50204587 0.25532624 4278821823
-0.76583225 0.5014537 0.25535834 4278821823
-0.75448424 0.5016917 0.25606045 4278821823
-0.74574959 0.50147653 0.25634101 4278821823
-0.73482358 0.50077224 0.25604019 4278821823
-0.72734547 0.50067616 0.25605622 4278821823
-1.1245047 0.51226509 0.25645882 4278821823
-1.1144332 0.51445043 0.25504935 4278821823
-1.1047513 0.51368725 0.25487375 4278821823
-1.0953252 0.51232898 0.25431001 4278821823
-1.0850698 0.51216537 0.25517556 4278821823
-1.0745499 0.51290208 0.25608277 4278821823
-1.0638167 0.51275915 0.25593615 4278821823
-1.055173 0.51246428 0.25557292 4278821823
-1.0446236 0.512447 0.25544575 4278821823
-1.035871 0.51260501 0.25471085 4278821823
-1.0254945 0.5130502 0.2557995 4278821823
-1.0150421 0.51246685 0.25539693 4278821823
-1.0053127 0.51266497 0.25498173 4278821823
-0.99532253 0.51221794 0.25565195 4278821823
-0.98604202 0.51196462 0.25560048 4278821823
-0.97508913 0.51250595 0.25655967 4278821823
-0.96429831 0.51331818 0.25510275 4278821823
-0.95567685 0.51218373 0.25625724 4278821823
-0.94551957 0.51255143 0.25659135 4278821823
-0.9345783 0.51156533 0.25529864 4278821823
-0.92577612 0.51127422 0.25579637 4278821823
-0.91644198 0.51140451 0.25453913 4278821823
-0.90495878 0.51243019 0.25596708 4278821823
-0.89503521 0.51078653 0.25663987 4278821823
-0.88391322 0.51161373 0.25753069 4278821823
-0.87712455 0.51142967 0.25834817 4278821823
-0.86510825 0.51164621 0.2591396 4278821823
-0.85430586 0.51048583 0.25851777 4278821823
-0.84290242 0.51084489 0.2574859 4278821823
-0.83514798 0.51096004 0.25531894 4278821823
-0.82871652 0.51168036 0.2575807 4278821823
-0.81485921 0.51003808 0.25812963 4278821823
-0.80746013 0.51021814 0.25730169 4278821823
-1.1070815 0.52186173 0.25992891 4278821823
-1.0617425 0.52117771 0.25981975 4278821823
-1.1068699 0.54732645 0.2557855 4278821823
-1.0960181 0.54952085 0.25610876 4278821823
-1.1114242 0.55329132 0.25508732 4278821823
-1.1030065 0.55775142 0.25775465 4278821823
-1.0982679 0.5548476 0.25352979 4278821823
-1.1012397 0.56490475 0.25494164 4278821823
-1.0964047 0.56564736 0.25429615 4278821823
-1.0808941 0.565413 0.25168169 4278821823
-1.0735518 0.56787431 0.25574932 4278821823
-1.0675218 0.56878078 0.25639611 4278821823
-1.1016803 0.57520068 0.25528672 4278821823
-1.0969495 0.57409042 0.25354654 4278821823
-1.0733474 0.57548583 0.25561798 4278821823
-1.0689319 0.57589692 0.25550219 4278821823
-1.103204 0.58454543 0.25561327 4278821823
-1.0954256 0.58561289 0.25512677 4278821823
-1.0810035 0.58636022 0.25776809 4278821823
-1.0730699 0.58447367 0.25478238 4278821823
-1.0681213 0.58674163 0.2559934 4278821823
-1.1032261 0.59371591 0.25636047 4278821823
-1.096174 0.59609264 0.25496584 4278821823
-1.0807372 0.59598488 0.25407821 4278821823
-1.0737988 0.59475958 0.25486398 4278821823
-1.0682935 0.59484565 0.25491199 4278821823
-1.1037469 0.60618389 0.25441608 4278821823
-1.0966425 0.60374391 0.25620154 4278821823
-1.0815206 0.60280907 0.25474057 4278821823
-1.0734105 0.60512257 0.25464255 4278821823
-1.0686635 0.6038934 0.25534078 4278821823
-1.1049485 0.61509192 0.25497139 4278821823
-1.0956233 0.61470759 0.25843266 4278821823
-1.0739164 0.61517096 0.25494623 4278821823
-1.068823 0.61360204 0.25563297 4278821823
-1.1110117 0.62637746 0.25502598 4278821823
-1.107348 0.62250131 0.2545062 4278821823
-1.0946546 0.62519461 0.25417912 4278821823
-1.0810835 0.6260215 0.25643966 4278821823
-1.0755547 0.62473118 0.25480247 4278821823
-1.0684314 0.62377089 0.25519621 4278821823
-1.1120867 0.63495821 0.25460729 4278821823
-1.1024203 0.63547844 0.25504717 4278821823
-1.0951295 0.63156939 0.25437677 4278821823
-1.0815312 0.63536346 0.25500193 4278821823
-1.0760996 0.63480747 0.25530159 4278821823
-1.069638 0.63119835 0.25150004 4278821823
-1.1122999 0.64645302 0.25479749 4278821823
-1.1057221 0.6445365 0.25479478 4278821823
-1.0831356 0.64404583 0.25466555 4278821823
-1.0746679 0.64542001 0.25494412 4278821823
-1.069183 0.64267069 0.25421378 4278821823
-1.1139392 0.65548599 0.25491691 4278821823
-1.1073918 0.65459216 0.25390625 4278821823
-1.0822805 0.65687287 0.25509432 4278821823
-1.0767633 0.65495694 0.25491124 4278821823
-1.1152109 0.66511035 0.25569111 4278821823
-1.1083466 0.66483504 0.25258747 4278821823
-1.0821921 0.66550833 0.25555423 4278821823
-1.0782348 0.66423672 0.25391671 4278821823
-1.114749 0.67512834 0.25583774 4278821823
-1.1092218 0.67309505 0.2527031 4278821823
-1.0831066 0.67445254 0.25470454 4278821823
-1.078611 0.67318535 0.25335324 4278821823
-1.120892 0.68542349 0.25704101 4278821823
-1.1142242 0.68476027 0.25460815 4278821823
-1.1099945 0.68006909 0.25251091 4278821823
-1.0903847 0.6858871 0.25729993 4278821823
-1.0846893 0.68500996 0.2548461 4278821823
-1.0783577 0.68428749 0.25521433 4278821823
-1.1210887 0.69559479 0.25543508 4278821823
-1.1139629 0.69455439 0.25473076 4278821823
-1.091217 0.69628799 0.25518414 4278821823
-1.0860839 0.69471627 0.25514248 4278821823
-1.0794945 0.6928398 0.25621653 4278821823
-1.1217469 0.70515221 0.25529119 4278821823
-1.11326 0.70369411 0.25405297 4278821823
-1.0918425 0.7054913 0.25521091 4278821823
-1.0876286 0.70369923 0.25367358 4278821823
-1.1228067 0.71481007 0.2547996 4278821823
-1.1156249 0.71612483 0.25605974 4278821823
-1.0927439 0.71577913 0.2550723 4278821823
-1.08848 0.71350878 0.25386909 4278821823
-1.1242081 0.72497201 0.2556389 4278821823
-1.1166226 0.72481614 0.25560495 4278821823
-1.1009562 0.72564125 0.25037318 4278821823
-1.0942256 0.72536665 0.25474095 4278821823
-1.0888557 0.72394234 0.2577596 4278821823
-1.1328464 0.73793304 0.25314569 4278821823
-1.1242458 0.7347486 0.25484776 4278821823
-1.1184102 0.73113328 0.25536028 4278821823
-1.1011124 0.73714101 0.25603276 4278821823
-1.0952717 0.73487252 0.25529879 4278821823
-1.0893313 0.73237705 0.25476682 4278821823
-1.1329941 0.74526924 0.25485316 4278821823
-1.1254219 0.74545616 0.25578991 4278821823
-1.1017551 0.74604464 0.2551598 4278821823
-1.0966405 0.74475384 0.25512141 4278821823
