# .PCD v0.7 - Point Cloud Data file format
VERSION 0.7
FIELDS x y z rgba
SIZE 4 4 4 4
TYPE F F F U
COUNT 1 1 1 1
WIDTH 1076
HEIGHT 1
VIEWPOINT 0 0 0 1 0 0 0
POINTS 1076
DATA ascii
-0.64522552 0.40933695 0.3626703 4278821823
-0.6441623 0.41659221 0.36468077 4278821823
-0.64427477 0.42515457 0.36495909 4278821823
-0.65103459 0.4385882 0.36447924 4278821823
-0.64597505 0.43672499 0.36312783 4278821823
-0.65144408 0.44483492 0.36346108 4278821823
-0.64610839 0.44454837 0.36570501 4278821823
-0.65102297 0.45716166 0.36425391 4278821823
-0.64708668 0.45475221 0.36638474 4278821823
-0.65276235 0.46646151 0.3644042 4278821823
-0.64838475 0.46310553 0.36700022 4278821823
-0.66159469 0.47804305 0.36385816 4278821823
-0.65611583 0.47492358 0.3652648 4278821823
-0.64935368 0.4710536 0.36896038 4278821823
-0.67230791 0.48851028 0.36362842 4278821823
-0.66458076 0.48589668 0.36536375 4278821823
-0.65788132 0.48313224 0.36687523 4278821823
-0.70105958 0.49903208 0.36712617 4278821823
-0.69365072 0.49739233 0.36485878 4278821823
-0.68465799 0.49537516 0.36498168 4278821823
-0.67587823 0.49252236 0.3647753 4278821823
-0.66660959 0.49064434 0.36655989 4278821823
-0.76092434 0.50964153 0.36830235 4278821823
-0.75333267 0.5093081 0.36461532 4278821823
-0.74469471 0.50872475 0.36479634 4278821823
-0.73445797 0.50809926 0.36524367 4278821823
-0.72505444 0.50684011 0.36478201 4278821823
-0.71487159 0.50545317 0.36509871 4278821823
-0.70461446 0.50318885 0.3653892 4278821823
-0.69698429 0.50091571 0.36537838 4278821823
-1.0487864 0.51949805 0.36096311 4278821823
-1.0132694 0.51975977 0.36091504 4278821823
-0.91628349 0.51848483 0.36449185 4278821823
-0.89525878 0.51800346 0.36225718 4278821823
-0.88595092 0.51926345 0.36337113 4278821823
-0.87590313 0.51875567 0.36329806 4278821823
-0.86555457 0.51822424 0.36499724 4278821823
-0.85260332 0.51885754 0.36526686 4278821823
-0.84454101 0.51746732 0.36512801 4278821823
-0.83512628 0.51612508 0.36448365 4278821823
-0.82528615 0.51601589 0.36470753 4278821823
-0.81483763 0.51797551 0.36489412 4278821823
-0.80478144 0.51694399 0.36490345 4278821823
-0.79500991 0.51585537 0.36534944 4278821823
-0.78495884 0.51544976 0.36493936 4278821823
-0.77456903 0.51444846 0.36541149 4278821823
-0.76491469 0.51286781 0.36472133 4278821823
-0.75510979 0.51165575 0.36538729 4278821823
-0.74577284 0.51080155 0.36691299 4278821823
-0.73715776 0.51077086 0.36627156 4278821823
-1.1127672 0.52488953 0.36540648 4278821823
-1.1046638 0.52415895 0.36577982 4278821823
-1.0950382 0.52407295 0.36396071 4278821823
-1.0845939 0.52511454 0.36558026 4278821823
-1.075253 0.52454162 0.3657248 4278821823
-1.0652195 0.52373976 0.36486447 4278821823
-1.0548337 0.52303427 0.36493224 4278821823
-1.0450416 0.52309626 0.36613524 4278821823
-1.0346904 0.52312666 0.36572069 4278821823
-1.0251637 0.52356541 0.36523491 4278821823
-1.0144477 0.52448201 0.36524907 4278821823
-1.0048914 0.5242393 0.36560601 4278821823
-0.99498403 0.52483886 0.36476028 4278821823
-0.98737186 0.52688485 0.36430025 4278821823
-0.9750672 0.52757019 0.36489102 4278821823
-0.96511835 0.52678448 0.36495033 4278821823
-0.95509475 0.52643436 0.365536 4278821823
-0.94645005 0.52541381 0.36500576 4278821823
-0.93466538 0.52539903 0.36546382 4278821823
-0.92467874 0.52463746 0.36446729 4278821823
-0.91490299 0.52415353 0.36472797 4278821823
-0.90525442 0.52344435 0.36483303 4278821823
-0.895706 0.52273935 0.36522675 4278821823
-0.88505644 0.52279252 0.36674717 4278821823
-0.87545466 0.52190942 0.3670696 4278821823
-0.86529541 0.52240109 0.36475307 4278821823
-0.85465884 0.52251136 0.36527306 4278821823
-0.84711182 0.52170682 0.36534029 4278821823
-0.83475065 0.52151996 0.36505875 4278821823
-0.82470322 0.52139944 0.3648876 4278821823
-0.81521273 0.52074468 0.36513051 4278821823
-0.80740815 0.52082551 0.36379743 4278821823
-0.99302214 0.53088665 0.36138242 4278821823
-0.98839927 0.53096545 0.36315632 4278821823
-0.975869 0.53175378 0.3678174 4278821823
-0.96433127 0.53141266 0.36809704 4278821823
-0.95903653 0.53030884 0.36400634 4278821823
-0.92834866 0.53130829 0.36102211 4278821823
-0.91580856 0.53006351 0.36855248 4278821823
-1.0820733 0.56585705 0.36874083 4278821823
-1.0759132 0.56795394 0.36555833 4278821823
-1.0807528 0.57455134 0.36114204 4278821823
-1.0747451 0.57594454 0.3668614 4278821823
-1.0672199 0.57574159 0.36508554 4278821823
-1.0749378 0.58538508 0.36505884 4278821823
-1.0689441 0.58076441 0.36378369 4278821823
-1.07604 0.59504259 0.36455894 4278821823
-1.0807624 0.60654277 0.36398485 4278821823
-1.0764971 0.60530549 0.36505872 4278821823
-1.0812193 0.61392188 0.36382532 4278821823
-1.0773335 0.6143949 0.36540771 4278821823
-1.0816844 0.62287492 0.36447462 4278821823
-1.0763774 0.62592733 0.36576691 4278821823
-1.0806798 0.63502032 0.36273283 4278821823
-1.0758454 0.63518602 0.36512959 4278821823
-1.0810921 0.64634442 0.36601877 4278821823
-1.0773697 0.64461213 0.36453849 4278821823
-1.0817776 0.65566814 0.36458498 4278821823
-1.0783842 0.65404844 0.36386281 4278821823
-1.0830963 0.66516578 0.3637017 4278821823
-1.0784931 0.66324967 0.36541736 4278821823
-1.09165 0.67747867 0.3658914 4278821823
-1.0845982 0.67522043 0.36458984 4278821823
-1.0792581 0.67332125 0.36591849 4278821823
-1.0911001 0.68298578 0.36455384 4278821823
-1.085747 0.68524992 0.36402804 4278821823
-1.0836788 0.69600153 0.36374885 4278821823
-1.0790634 0.69178128 0.36235449 4278821823
-1.091179 0.70761794 0.36884418 4278821823
-1.0871284 0.70484221 0.36513549 4278821823
-1.091827 0.71526968 0.36530909 4278821823
-1.0886523 0.71388394 0.36409336 4278821823
-1.0940726 0.72556049 0.36518404 4278821823
-1.1001074 0.73813093 0.36735064 4278821823
-1.0965908 0.73450935 0.365275 4278821823
-1.1006962 0.74671286 0.36253563 4278821823
-1.0974907 0.74391955 0.36497056 4278821823
-1.1010736 0.75661081 0.36451173 4278821823
-1.0971978 0.75454181 0.36527488 4278821823
-1.1029931 0.76504141 0.36436832 4278821823
-1.0996304 0.76336622 0.3658652 4278821823
-1.1036545 0.77473658 0.36474708 4278821823
-1.1044902 0.78541797 0.36300081 4278821823
-1.0958192 0.78610986 0.36930621 4278821823
-1.1062226 0.7954523 0.36370894 4278821823
-1.0982425 0.79139256 0.36861351 4278821823
-1.1047921 0.80519271 0.36362833 4278821823
-1.1120697 0.81425148 0.36120549 4278821823
-1.1062933 0.81166965 0.36187863 4278821823
-0.6437313 0.41704994 0.37567872 4278821823
-0.63923484 0.41959849 0.37295896 4278821823
-0.64319962 0.425134 0.37479079 4278821823
-0.63902479 0.42213237 0.37124968 4278821823
-0.64514208 0.43655419 0.3735702 4278821823
-0.63994712 0.43552464 0.37026629 4278821823
-0.65150774 0.44603872 0.37690839 4278821823
-0.64512616 0.44537577 0.37495208 4278821823
-0.65290612 0.45513815 0.37519905 4278821823
-0.6470378 0.45379448 0.37385559 4278821823
-0.65252537 0.46603724 0.37515232 4278821823
-0.64856035 0.46302754 0.3748017 4278821823
-0.66178077 0.47750172 0.37433016 4278821823
-0.65540123 0.47433081 0.37479821 4278821823
-0.64990222 0.47290385 0.37995851 4278821823
-0.67193043 0.48899436 0.3714028 4278821823
-0.66366351 0.48692152 0.37562987 4278821823
-0.65759873 0.48341936 0.37517518 4278821823
-0.70198298 0.49892223 0.37556243 4278821823
-0.69389153 0.49836612 0.37467408 4278821823
-0.68503851 0.49586865 0.37475827 4278821823
-0.67532444 0.4931488 0.37508002 4278821823
-0.66756994 0.49097285 0.3761197 4278821823
-0.76090056 0.509754 0.37685364 4278821823
-0.75658882 0.50981402 0.37261814 4278821823
-0.74291486 0.50909996 0.37597251 4278821823
-0.73504084 0.50820607 0.37464631 4278821823
-0.72536397 0.50680953 0.37496534 4278821823
-0.71470118 0.50533551 0.37504956 4278821823
-0.70580596 0.50285345 0.37464857 4278821823
-0.69544238 0.50150114 0.37572721 4278821823
-0.68855798 0.50010365 0.37856343 4278821823
-0.87377214 0.51812524 0.37290287 4278821823
-0.86516976 0.51894897 0.37602669 4278821823
-0.85418153 0.51893145 0.37398189 4278821823
-0.84543812 0.51827991 0.37223285 4278821823
-0.83499694 0.51794481 0.37498632 4278821823
-0.82511246 0.51809472 0.37553889 4278821823
-0.8136372 0.51878887 0.37470749 4278821823
-0.80512834 0.51763028 0.37406358 4278821823
-0.79502183 0.51627022 0.37502179 4278821823
-0.78493476 0.51580614 0.37508664 4278821823
-0.77509284 0.51421756 0.37472174 4278821823
-0.76494837 0.51300722 0.37547195 4278821823
-0.7562387 0.51184613 0.37432459 4278821823
-0.74611664 0.51097894 0.375146 4278821823
-0.7362687 0.51045698 0.3763276 4278821823
-1.0246389 0.52337241 0.37498367 4278821823
-1.0148556 0.52471828 0.37466958 4278821823
-1.0056026 0.52506089 0.3755632 4278821823
-0.99618721 0.5252564 0.3741371 4278821823
-0.98420864 0.52671564 0.37517524 4278821823
-0.97459614 0.52599084 0.37529331 4278821823
-0.96463823 0.52666533 0.37427756 4278821823
-0.95411968 0.52671993 0.37421727 4278821823
-0.94436711 0.52637535 0.37501797 4278821823
-0.93488437 0.52622563 0.37489402 4278821823
-0.92518824 0.52516782 0.3746995 4278821823
-0.91518766 0.52438819 0.37479711 4278821823
-0.90470743 0.52480805 0.375476 4278821823
-0.89517504 0.5241912 0.37490812 4278821823
-0.88405275 0.52396852 0.37509856 4278821823
-0.87544084 0.52309674 0.37513652 4278821823
-0.86428052 0.52270293 0.37471965 4278821823
-0.85441613 0.52296776 0.37642837 4278821823
-0.84309465 0.52198988 0.37674847 4278821823
-0.83759832 0.5213744 0.376376 4278821823
-0.82391155 0.52310538 0.37563056 4278821823
-0.81534159 0.52220064 0.37525374 4278821823
-0.80488968 0.52107787 0.37815854 4278821823
-0.79842633 0.52014899 0.37729245 4278821823
-0.96781778 0.53115606 0.37145182 4278821823
-0.95358723 0.53080302 0.3728089 4278821823
-0.94828534 0.5327087 0.37827778 4278821823
-1.0806201 0.58521891 0.3768248 4278821823
-1.0774236 0.58528399 0.37466824 4278821823
-1.0808872 0.59421468 0.37477618 4278821823
-1.0774462 0.59437746 0.374421 4278821823
-1.0755185 0.60519052 0.37460655 4278821823
-1.081897 0.61488771 0.37392288 4278821823
-1.0760751 0.61426115 0.37578213 4278821823
-1.0815696 0.62665629 0.3745009 4278821823
-1.0767024 0.62441617 0.37524235 4278821823
-1.081213 0.63589931 0.37546578 4278821823
-1.0769007 0.63509089 0.37462842 4278821823
-1.0814688 0.64561158 0.37576893 4278821823
-1.0778283 0.64474213 0.37399644 4278821823
-1.0824555 0.65435082 0.37525353 4278821823
-1.0767796 0.65333104 0.37354174 4278821823
-1.0826874 0.66595227 0.37508735 4278821823
-1.0783715 0.66244173 0.37350112 4278821823
-1.0910069 0.67642951 0.37232509 4278821823
-1.0849465 0.67477763 0.37536874 4278821823
-1.091836 0.68077511 0.37047201 4278821823
-1.087189 0.68506575 0.37565783 4278821823
-1.0908167 0.69670779 0.37539124 4278821823
-1.0873754 0.69471174 0.37429729 4278821823
-1.0912993 0.70524353 0.37678307 4278821823
-1.088313 0.70447481 0.37488076 4278821823
-1.092113 0.71498972 0.37489209 4278821823
-1.089157 0.71376777 0.37484017 4278821823
-1.0933712 0.72466534 0.37461469 4278821823
-1.0890287 0.72485417 0.37816131 4278821823
-1.094771 0.7349332 0.37492087 4278821823
-1.0943999 0.74498624 0.37396109 4278821823
-1.0893118 0.74642676 0.37930629 4278821823
-1.1014237 0.75617796 0.37187877 4278821823
-1.0953661 0.7543124 0.37496921 4278821823
-1.1019552 0.76233524 0.37259105 4278821823
-1.0979152 0.76676363 0.37306523 4278821823
-1.1004732 0.77716637 0.37203598 4278821823
-1.0985545 0.77433282 0.37172547 4278821823
-0.64955282 0.40997729 0.38872913 4278821823
-0.6433562 0.41635156 0.38537085 4278821823
-0.64260393 0.42449334 0.38487726 4278821823
-0.65357929 0.43835279 0.3873671 4278821823
-0.64287007 0.43481308 0.38517407 4278821823
-0.63997871 0.43602538 0.38602695 4278821823
-0.65292406 0.44491398 0.38444328 4278821823
-0.64365453 0.44465712 0.38457629 4278821823
-0.65322071 0.45566532 0.38519123 4278821823
-0.64452684 0.45492113 0.38508013 4278821823
-0.65216035 0.46615645 0.38419273 4278821823
-0.64660931 0.46489137 0.38591191 4278821823
-0.66131657 0.47739542 0.38594496 4278821823
-0.6534844 0.4748691 0.38513196 4278821823
-0.64881754 0.47348604 0.38521183 4278821823
-0.67075598 0.48864046 0.38490829 4278821823
-0.66425389 0.48686245 0.38545188 4278821823
-0.6568082 0.48265055 0.38388646 4278821823
-0.6498096 0.48044252 0.38476861 4278821823
-0.70292664 0.49970725 0.3818326 4278821823
-0.6921857 0.49850628 0.38470295 4278821823
-0.68418974 0.49732423 0.38501677 4278821823
-0.6747635 0.49334753 0.38478938 4278821823
-0.66722739 0.49133566 0.38502905 4278821823
-0.65740424 0.49001867 0.38223815 4278821823
-0.76175749 0.50965095 0.38271964 4278821823
-0.75967348 0.50963485 0.38043308 4278821823
-0.74267018 0.50929809 0.38575381 4278821823
-0.73440766 0.50811797 0.38448 4278821823
-0.7246995 0.50738174 0.38490811 4278821823
-0.71475011 0.50588375 0.38492474 4278821823
-0.70511699 0.50307828 0.38509932 4278821823
-0.69505405 0.50124604 0.38511381 4278821823
-0.68913841 0.50078255 0.38551566 4278821823
-0.86537015 0.51925075 0.38526365 4278821823
-0.8564145 0.51950586 0.38429549 4278821823
-0.84504831 0.5195291 0.38304412 4278821823
-0.83241689 0.51857662 0.3830139 4278821823
-0.82501072 0.51819158 0.38473129 4278821823
-0.81517363 0.51796961 0.38502473 4278821823
-0.80457854 0.51758212 0.38511431 4278821823
-0.79490238 0.51678532 0.38488808 4278821823
-0.78473097 0.5159632 0.38502684 4278821823
-0.77501816 0.51561046 0.38482139 4278821823
-0.76521397 0.51414913 0.38493696 4278821823
-0.75470597 0.51240319 0.38532805 4278821823
-0.74583763 0.51144737 0.38480964 4278821823
-0.73645359 0.51053375 0.38547406 4278821823
-1.0261061 0.52522564 0.38567728 4278821823
-1.0139995 0.52584058 0.38543522 4278821823
-1.0039839 0.52666336 0.38458386 4278821823
-0.99370098 0.52699167 0.38502324 4278821823
-0.98488653 0.5265981 0.38462478 4278821823
-0.97367859 0.526546 0.38595259 4278821823
-0.96589267 0.52553767 0.38459831 4278821823
-0.95521325 0.52536589 0.38509741 4278821823
-0.94523543 0.52604836 0.38375798 4278821823
-0.93428379 0.52618957 0.38482824 4278821823
-0.92556906 0.52522582 0.38524011 4278821823
-0.91454583 0.52537733 0.38493028 4278821823
-0.90538138 0.52489209 0.3849009 4278821823
-0.89473635 0.52485466 0.38515213 4278821823
-0.88485628 0.52447575 0.38472423 4278821823
-0.87518853 0.52377921 0.38474417 4278821823
-0.86623245 0.52351069 0.38476482 4278821823
-0.85374612 0.52303469 0.3853519 4278821823
-0.8451786 0.52185041 0.3848826 4278821823
-0.83593088 0.52150893 0.38508216 4278821823
-0.82621431 0.5221765 0.3858754 4278821823
-0.81471843 0.52247894 0.38550594 4278821823
-0.80533195 0.52121478 0.38457957 4278821823
-0.79802483 0.5208146 0.38592616 4278821823
-0.78363866 0.52009565 0.38763916 4278821823
-0.77964264 0.52001095 0.38404873 4278821823
-0.7686761 0.52067626 0.38870806 4278821823
-0.99302071 0.53102183 0.38911936 4278821823
-0.94062167 0.53025103 0.38502795 4278821823
-0.93648809 0.53038901 0.38519314 4278821823
-1.0810661 0.58377862 0.38284111 4278821823
-1.0779663 0.58541894 0.3839972 4278821823
-1.0754886 0.59492356 0.38456714 4278821823
-1.0800469 0.60945946 0.38831651 4278821823
-1.0743322 0.60531574 0.38377684 4278821823
-1.0693702 0.60263288 0.38308024 4278821823
-1.0819728 0.61415607 0.387449 4278821823
-1.0763708 0.61267567 0.38186628 4278821823
-1.0821453 0.62691379 0.38760984 4278821823
-1.0770622 0.62397265 0.38388014 4278821823
-1.0828056 0.6355871 0.38475752 4278821823
-1.0786259 0.6312393 0.38097695 4278821823
-1.0833296 0.64464623 0.38517845 4278821823
-1.0798361 0.64588451 0.38755414 4278821823
-1.0824009 0.65441304 0.38495097 4278821823
-1.0795882 0.65446854 0.38586211 4278821823
-1.0833839 0.66535515 0.38495362 4278821823
-1.0851979 0.67488968 0.38460711 4278821823
-1.0906111 0.68766522 0.3890149 4278821823
-1.0868222 0.68407321 0.38528693 4278821823
-1.0919505 0.69571686 0.3853648 4278821823
-1.0881656 0.69434965 0.38279971 4278821823
-1.0935088 0.70562178 0.383719 4278821823
-1.088387 0.70528895 0.38667354 4278821823
-1.0919979 0.71567369 0.38425714 4278821823
-1.0893054 0.71243596 0.38637269 4278821823
-1.0928365 0.7236895 0.3809413 4278821823
-1.088406 0.7259472 0.38487217 4278821823
-1.0864434 0.73477739 0.38356191 4278821823
-1.0908644 0.74643868 0.38100982 4278821823
-1.0884315 0.74113482 0.38170525 4278821823
-0.65132684 0.41268259 0.39492184 4278821823
-0.64343798 0.41781774 0.39471188 4278821823
-0.63831258 0.41729116 0.39396012 4278821823
-0.64273334 0.42530563 0.39481509 4278821823
-0.63989097 0.42393461 0.3920095 4278821823
-0.65453184 0.43796322 0.39303324 4278821823
-0.64204675 0.43521613 0.39502567 4278821823
-0.63948196 0.43503836 0.39905694 4278821823
-0.65273803 0.44515693 0.39411822 4278821823
-0.64454359 0.445755 0.39670804 4278821823
-0.6398592 0.44653612 0.39538962 4278821823
-0.65218198 0.45614833 0.39717394 4278821823
-0.64434516 0.45510453 0.39536566 4278821823
-0.63981968 0.45038635 0.39775065 4278821823
-0.65267611 0.46639025 0.39555249 4278821823
-0.64788544 0.4641912 0.3940044 4278821823
-0.66124445 0.47681844 0.39447775 4278821823
-0.65440315 0.47518051 0.39500895 4278821823
-0.64926642 0.47424448 0.39324173 4278821823
-0.67078924 0.48941445 0.3960835 4278821823
-0.66437131 0.48720494 0.39535525 4278821823
-0.65700668 0.48406258 0.39612547 4278821823
-0.69190097 0.49933222 0.39421621 4278821823
-0.68528271 0.49781302 0.39441848 4278821823
-0.67532068 0.49470738 0.39517999 4278821823
-0.66811341 0.49218068 0.39559472 4278821823
-0.75136429 0.50978404 0.3968358 4278821823
-0.74628139 0.50978422 0.3933987 4278821823
-0.73251969 0.50891709 0.39508638 4278821823
-0.72458094 0.50818908 0.39474249 4278821823
-0.7150405 0.50633991 0.39486673 4278821823
-0.70515102 0.50418669 0.39503744 4278821823
-0.69597214 0.50223833 0.39530876 4278821823
-0.68745899 0.50060803 0.39830294 4278821823
-0.87213767 0.51925665 0.3914234 4278821823
-0.86541861 0.51934177 0.39403555 4278821823
-0.8556003 0.51938498 0.39334872 4278821823
-0.84650993 0.51834893 0.39612985 4278821823
-0.83189452 0.5191735 0.39892074 4278821823
-0.82445753 0.51895452 0.3944779 4278821823
-0.81555605 0.5178684 0.39373171 4278821823
-0.80416089 0.51768738 0.39551488 4278821823
-0.7953425 0.51663083 0.39491895 4278821823
-0.78498387 0.51650995 0.39522377 4278821823
-0.77509522 0.51593924 0.39542893 4278821823
-0.76499826 0.5145247 0.39465535 4278821823
-0.75500184 0.51301867 0.39524648 4278821823
-0.74475479 0.51151043 0.3950291 4278821823
-0.73560166 0.51106161 0.39580765 4278821823
-0.72817445 0.51110542 0.39649755 4278821823
-1.024817 0.52738535 0.3951385 4278821823
-1.014894 0.52842808 0.39517426 4278821823
-1.0038075 0.52840245 0.39663988 4278821823
-0.99491119 0.52800298 0.39469621 4278821823
-0.9852941 0.52705467 0.39486068 4278821823
-0.97593093 0.52643156 0.39428729 4278821823
-0.96473563 0.52660888 0.394815 4278821823
-0.95536464 0.52619088 0.39553249 4278821823
-0.94487226 0.52561182 0.39461294 4278821823
-0.93485463 0.52528709 0.39548808 4278821823
-0.92466325 0.52654916 0.39398095 4278821823
-0.91491747 0.52662116 0.39376676 4278821823
-0.90462017 0.5264408 0.39387774 4278821823
-0.89469647 0.5256691 0.39513758 4278821823
-0.88495511 0.52483827 0.39451542 4278821823
-0.87433356 0.52518916 0.39516833 4278821823
-0.86563808 0.52456242 0.39644888 4278821823
-0.85456473 0.52236605 0.39529657 4278821823
-0.84580022 0.52193743 0.39504755 4278821823
-0.8351562 0.52226299 0.39481091 4278821823
-0.82677817 0.52241212 0.39491889 4278821823
-0.81446797 0.52125514 0.39558518 4278821823
-0.80650789 0.52068758 0.3935945 4278821823
-0.79312932 0.52029687 0.39616635 4278821823
-0.78788447 0.52018571 0.39145398 4278821823
-0.77090335 0.52072352 0.39070925 4278821823
-1.0023317 0.53090537 0.39826405 4278821823
-0.99725294 0.5309689 0.39327604 4278821823
-0.91241503 0.53188038 0.3944661 4278821823
-0.90275353 0.53244984 0.39635003 4278821823
-0.89817947 0.53228545 0.39782831 4278821823
-1.0775008 0.58611721 0.39561114 4278821823
-1.0807517 0.59635615 0.39743575 4278821823
-1.0774692 0.59476477 0.39425334 4278821823
-1.0816059 0.60534459 0.39265454 4278821823
-1.0785738 0.60411268 0.39524734 4278821823
-1.0810159 0.61771232 0.39546043 4278821823
-1.0784622 0.61451256 0.3961547 4278821823
-1.0822129 0.62495995 0.39353469 4278821823
-1.0788376 0.6253432 0.39750838 4278821823
-1.082389 0.63403523 0.39386508 4278821823
-1.0782517 0.63689131 0.3973144 4278821823
-1.0819647 0.64519471 0.39531961 4278821823
-1.0786506 0.6440143 0.39553142 4278821823
-1.081863 0.65391123 0.39588362 4278821823
-1.0789863 0.65589249 0.3941198 4278821823
-1.0830848 0.66564912 0.39516336 4278821823
-1.0786077 0.66184032 0.39222813 4278821823
-1.0904001 0.67694187 0.39560965 4278821823
-1.0859956 0.67417115 0.3939476 4278821823
-1.0867774 0.68448222 0.39329094 4278821823
-1.0914594 0.69922173 0.39068526 4278821823
-1.084748 0.69536716 0.39221716 4278821823
-1.092129 0.70136285 0.39005998 4278821823
-1.0885333 0.70497781 0.39027008 4278821823
-0.64460051 0.415815 0.40656906 4278821823
-0.63955534 0.41952008 0.40670207 4278821823
-0.6423167 0.42501664 0.40598455 4278821823
-0.63869137 0.42598921 0.40455323 4278821823
-0.65248674 0.43813819 0.40676984 4278821823
-0.64184558 0.43521464 0.40504256 4278821823
-0.63961899 0.43329152 0.40258616 4278821823
-0.65109199 0.44436097 0.4041101 4278821823
-0.64532524 0.44501436 0.40482649 4278821823
-0.65076947 0.45518783 0.40274131 4278821823
-0.646061 0.45436206 0.40546313 4278821823
-0.65256083 0.4655574 0.40510017 4278821823
-0.64738697 0.46473312 0.4054215 4278821823
-0.66130406 0.47831926 0.40671575 4278821823
-0.65436405 0.47525206 0.40475014 4278821823
-0.64922702 0.47260904 0.40552226 4278821823
-0.6707921 0.48898065 0.40564901 4278821823
-0.66415995 0.48630714 0.40509868 4278821823
-0.65746188 0.48237899 0.40326372 4278821823
-0.64991289 0.48174927 0.40023676 4278821823
-0.69231778 0.49906701 0.40500084 4278821823
-0.68400019 0.49788246 0.40561 4278821823
-0.67505389 0.49422291 0.40483916 4278821823
-0.66779375 0.49111661 0.40563878 4278821823
-0.74179488 0.50834322 0.40849167 4278821823
-0.73409939 0.50879127 0.40556616 4278821823
-0.72375941 0.50836521 0.40343919 4278821823
-0.71471494 0.50669819 0.40428495 4278821823
-0.70461011 0.50515318 0.40529391 4278821823
-0.69536227 0.50221962 0.40480676 4278821823
-0.6864171 0.50059575 0.40574148 4278821823
-0.86150926 0.51998776 0.40405539 4278821823
-0.83315504 0.51935196 0.40452853 4278821823
-0.82612896 0.51915121 0.40294117 4278821823
-0.81235766 0.51868963 0.40213457 4278821823
-0.80492693 0.51846969 0.40342739 4278821823
-0.79458213 0.51765049 0.40409276 4278821823
-0.78502387 0.51659375 0.40483674 4278821823
-0.77488565 0.51594889 0.40489006 4278821823
-0.76526886 0.51532269 0.40517092 4278821823
-0.75517827 0.51391 0.40476939 4278821823
-0.74464154 0.51263952 0.40521207 4278821823
-0.73582309 0.51182318 0.40438342 4278821823
-0.72530246 0.51151514 0.40573597 4278821823
-0.71749341 0.5105443 0.40647694 4278821823
-1.0236843 0.52846551 0.40462136 4278821823
-1.0160202 0.52817374 0.40535796 4278821823
-1.0052699 0.52867603 0.40556571 4278821823
-0.99530745 0.52871811 0.40501988 4278821823
-0.98509294 0.52718103 0.40476787 4278821823
-0.97560376 0.5263238 0.40445161 4278821823
-0.9636094 0.52714908 0.40341252 4278821823
-0.95487219 0.52665138 0.40535808 4278821823
-0.94606233 0.52681786 0.40535524 4278821823
-0.93535918 0.52719772 0.40502718 4278821823
-0.92467517 0.52657944 0.4039427 4278821823
-0.91474795 0.52661836 0.4047747 4278821823
-0.90490687 0.52708715 0.40448967 4278821823
-0.89487833 0.52704352 0.40417859 4278821823
-0.88504934 0.52588749 0.40427303 4278821823
-0.87523103 0.52583909 0.40413246 4278821823
-0.86423606 0.52551937 0.40557304 4278821823
-0.85508543 0.52370971 0.40505156 4278821823
-0.84447455 0.52309638 0.40474305 4278821823
-0.83573407 0.52265352 0.40491959 4278821823
-0.82434958 0.52163881 0.40680051 4278821823
-0.81528586 0.5210374 0.40591159 4278821823
-0.80502164 0.52150106 0.40700251 4278821823
-0.79591411 0.52108663 0.40535745 4278821823
-0.78872168 0.52110124 0.40671879 4278821823
-1.0246042 0.53015912 0.40675965 4278821823
-1.0181758 0.53043973 0.40639699 4278821823
-1.0065639 0.53085238 0.40242076 4278821823
-0.99219996 0.53009343 0.4035393 4278821823
-0.98908478 0.53006941 0.40012136 4278821823
-0.96098042 0.53062218 0.40820226 4278821823
-0.9555552 0.53058934 0.40900347 4278821823
-0.92388362 0.53016853 0.40721413 4278821823
-0.91642576 0.53041202 0.40839911 4278821823
-0.90608054 0.5308916 0.40915871 4278821823
-0.89925838 0.53194988 0.40055037 4278821823
-0.88102818 0.53195941 0.40657872 4278821823
-0.87620962 0.53144431 0.40857333 4278821823
-0.86333913 0.53224397 0.40838137 4278821823
-0.85919726 0.53123641 0.40527821 4278821823
-1.0813868 0.58569139 0.40582487 4278821823
-1.0781343 0.58510894 0.40420219 4278821823
-1.0814494 0.59478337 0.40527594 4278821823
-1.078477 0.59589201 0.40403679 4278821823
-1.0808084 0.60241079 0.40497389 4278821823
-1.0782483 0.60604566 0.40455911 4278821823
-1.080773 0.61669648 0.4031232 4278821823
-1.0778328 0.61534363 0.40529656 4278821823
-1.0809182 0.62464255 0.40361962 4278821823
-1.0785201 0.62481236 0.4055897 4278821823
-1.08073 0.63721317 0.40215316 4278821823
-1.0772303 0.6343556 0.40517393 4278821823
-1.0820533 0.64437979 0.40174654 4278821823
-1.0775156 0.64525592 0.40518025 4278821823
-1.0816575 0.65312129 0.40229663 4278821823
-1.0787383 0.65854079 0.40256587 4278821823
-1.0817273 0.66497165 0.40176576 4278821823
-1.0794078 0.6606819 0.40194058 4278821823
-1.0843242 0.67139953 0.40053529 4278821823
-0.65075833 0.40916049 0.41770339 4278821823
-0.65071523 0.41267347 0.41405803 4278821823
-0.64570343 0.41675264 0.4155044 4278821823
-0.64475083 0.42513397 0.41467661 4278821823
-0.65269798 0.43794164 0.41379631 4278821823
-0.6426754 0.43479183 0.41527554 4278821823
-0.63965279 0.43793187 0.41358921 4278821823
-0.65170389 0.44498137 0.41569185 4278821823
-0.64470071 0.44372401 0.41632506 4278821823
-0.63949442 0.44265532 0.41558701 4278821823
-0.65294951 0.45461342 0.41491967 4278821823
-0.6454584 0.4535906 0.41359624 4278821823
-0.63969266 0.45113042 0.41332328 4278821823
-0.65224391 0.46776652 0.41683638 4278821823
-0.64661247 0.46493506 0.41512954 4278821823
-0.66212058 0.47761777 0.41241577 4278821823
-0.654383 0.47535565 0.4146769 4278821823
-0.64916265 0.4727844 0.4139269 4278821823
-0.67198801 0.48867142 0.4134247 4278821823
-0.6631515 0.48689881 0.41494569 4278821823
-0.65764481 0.48267183 0.41553631 4278821823
-0.64868629 0.48167273 0.41997585 4278821823
-0.69187301 0.49921682 0.41404924 4278821823
-0.68439072 0.49791074 0.41512308 4278821823
-0.67543703 0.49435726 0.41468671 4278821823
-0.6673429 0.49166915 0.41690421 4278821823
-0.74331135 0.5085597 0.41218337 4278821823
-0.73257935 0.50952208 0.41641378 4278821823
-0.72530758 0.509022 0.41598254 4278821823
-0.71410972 0.5082894 0.41517344 4278821823
-0.70479411 0.50590843 0.41487345 4278821823
-0.69514352 0.50259173 0.41519511 4278821823
-0.68841857 0.50065702 0.41467854 4278821823
-0.832376 0.51986963 0.41195726 4278821823
-0.8216331 0.51843053 0.41883886 4278821823
-0.81423223 0.51869524 0.41554964 4278821823
-0.80387247 0.51920986 0.41403043 4278821823
-0.79484755 0.51826757 0.41492024 4278821823
-0.78440952 0.51735276 0.41559246 4278821823
-0.77480394 0.51646203 0.41488376 4278821823
-0.76474589 0.51583254 0.41505811 4278821823
-0.7551381 0.51465929 0.41490531 4278821823
-0.7453118 0.51303047 0.41501585 4278821823
-0.73524046 0.51234555 0.41592941 4278821823
-0.72625208 0.51170141 0.41469896 4278821823
-0.71798915 0.51076561 0.41397586 4278821823
-1.0242324 0.52815449 0.41306555 4278821823
-1.0151439 0.5272755 0.41420665 4278821823
-1.0051806 0.52659678 0.41522664 4278821823
-0.9945969 0.52728963 0.41471285 4278821823
-0.9846791 0.52809477 0.41357195 4278821823
-0.97686338 0.5278734 0.41411877 4278821823
-0.96386421 0.528229 0.41605216 4278821823
-0.95488077 0.52788281 0.41418487 4278821823
-0.94542688 0.52733874 0.41498101 4278821823
-0.93481481 0.52727205 0.41488498 4278821823
-0.92544109 0.52723503 0.4149133 4278821823
-0.91536665 0.52770579 0.41603115 4278821823
-0.9050709 0.5280717 0.41571212 4278821823
-0.8952266 0.52703083 0.41494089 4278821823
-0.88527793 0.52549148 0.41477293 4278821823
-0.87504911 0.52553368 0.4149496 4278821823
-0.86396623 0.52657503 0.41448107 4278821823
-0.85530406 0.52493763 0.41458046 4278821823
-0.8449946 0.5238269 0.41494635 4278821823
-0.8344304 0.52321559 0.4152253 4278821823
-0.8252995 0.52157682 0.41504356 4278821823
-0.8156271 0.52172065 0.4142864 4278821823
-0.80610216 0.52199686 0.41536957 4278821823
-0.79527599 0.52134645 0.41612178 4278821823
-0.78717077 0.52055311 0.41616994 4278821823
-1.032657 0.53124219 0.41459167 4278821823
-1.0239247 0.53130144 0.41300625 4278821823
-1.0165802 0.53160864 0.4178046 4278821823
-1.0096985 0.53090173 0.4191038 4278821823
-0.97358513 0.53033417 0.4181304 4278821823
-0.96444219 0.53052855 0.41466707 4278821823
-0.95567381 0.53093004 0.41498667 4278821823
-0.94928634 0.53153163 0.41750827 4278821823
-0.92095321 0.53018427 0.41041821 4278821823
-0.91315734 0.53079903 0.41307655 4278821823
-0.90848422 0.5308615 0.41151953 4278821823
-0.86330307 0.53288817 0.41245022 4278821823
-0.85377473 0.53041363 0.41750982 4278821823
-1.0821482 0.58494002 0.41406667 4278821823
-1.0790728 0.58749145 0.41363883 4278821823
-1.0817318 0.59517014 0.41060141 4278821823
-1.0766586 0.59613669 0.41456911 4278821823
-1.074827 0.60531962 0.41325554 4278821823
-1.0762981 0.61484396 0.41151077 4278821823
-1.0791686 0.62213171 0.41003424 4278821823
-0.64535749 0.41665238 0.42392075 4278821823
-0.63963079 0.41994178 0.42825606 4278821823
-0.64543915 0.42442453 0.42516392 4278821823
-0.63917357 0.42474729 0.4295485 4278821823
-0.65293318 0.43864575 0.42558026 4278821823
-0.64375067 0.43476576 0.42493874 4278821823
-0.65336937 0.4452295 0.42463624 4278821823
-0.64549947 0.44396043 0.4239302 4278821823
-0.65206915 0.45712209 0.42512178 4278821823
-0.64528883 0.45519543 0.4250724 4278821823
-0.65174145 0.46548423 0.42431831 4278821823
-0.64836848 0.46400413 0.42539459 4278821823
-0.66069418 0.47845763 0.42520666 4278821823
-0.65338397 0.47471309 0.42503324 4278821823
-0.64891857 0.47302106 0.42394823 4278821823
-0.67062652 0.48954552 0.4253363 4278821823
-0.66317773 0.48727918 0.42495695 4278821823
-0.65661532 0.48360968 0.42517725 4278821823
-0.64887768 0.48191664 0.42419365 4278821823
-0.6923368 0.49865249 0.42247158 4278821823
-0.68314153 0.498734 0.42461336 4278821823
-0.67494661 0.49534333 0.42502069 4278821823
-0.66692352 0.49183133 0.42497924 4278821823
-0.65968347 0.49136722 0.42463022 4278821823
-0.74361688 0.50913489 0.42747688 4278821823
-0.73282462 0.50930667 0.42556727 4278821823
-0.72470683 0.50879592 0.42507979 4278821823
-0.7145825 0.50816083 0.42468342 4278821823
-0.70524025 0.50591612 0.42490545 4278821823
-0.69552904 0.50297987 0.42517987 4278821823
-0.68602115 0.50161153 0.42634913 4278821823
-0.67792869 0.50022799 0.42695034 4278821823
-0.82224369 0.51864117 0.42261484 4278821823
-0.815135 0.51929289 0.42515633 4278821823
-0.80265975 0.5189333 0.42398554 4278821823
-0.79555875 0.51834893 0.4240559 4278821823
-0.78447455 0.51747602 0.42513466 4278821823
-0.77544206 0.51658756 0.42458153 4278821823
-0.76446527 0.5162012 0.42525539 4278821823
-0.75494295 0.51470661 0.42531654 4278821823
-0.74526674 0.5133813 0.42450508 4278821823
-0.73504049 0.51189983 0.42485881 4278821823
-0.72748369 0.51074892 0.42465523 4278821823
-0.71413386 0.51066208 0.425605 4278821823
-0.70918953 0.51075947 0.42572942 4278821823
-1.0238178 0.52956361 0.42577341 4278821823
-1.0156027 0.52844656 0.42464113 4278821823
-1.0040917 0.52786517 0.42304793 4278821823
-0.99521673 0.52886361 0.42548651 4278821823
-0.9847486 0.52928245 0.42422977 4278821823
-0.97518337 0.52861297 0.42684931 4278821823
-0.96419978 0.52888751 0.42632216 4278821823
-0.95503438 0.5287478 0.4259215 4278821823
-0.94460773 0.52902579 0.42525434 4278821823
-0.93525314 0.52839959 0.42458928 4278821823
-0.92479581 0.5275737 0.42522025 4278821823
-0.91480821 0.52765405 0.42496991 4278821823
-0.90437317 0.52717185 0.42519611 4278821823
-0.89474124 0.52598482 0.42473578 4278821823
-0.88554978 0.52501965 0.42479128 4278821823
-0.87517416 0.52570724 0.42542529 4278821823
-0.8649472 0.5258379 0.42511886 4278821823
-0.85331494 0.52622539 0.42357126 4278821823
-0.84470516 0.5251087 0.42435575 4278821823
-0.83517176 0.52341717 0.42485133 4278821823
-0.82538873 0.52220279 0.42534176 4278821823
-0.81612796 0.52215904 0.42566833 4278821823
-0.8053931 0.52181947 0.42446333 4278821823
-0.79566866 0.52109689 0.4249298 4278821823
-0.78684509 0.52094215 0.42593962 4278821823
-0.76784718 0.52028239 0.42902988 4278821823
-1.0238379 0.53132939 0.42736903 4278821823
-1.0130825 0.53057426 0.42453712 4278821823
-1.0048342 0.53127915 0.42172575 4278821823
-0.98160106 0.53036422 0.42845488 4278821823
-0.97473615 0.5303998 0.4247773 4278821823
-0.96395576 0.53133833 0.4225167 4278821823
-0.95470542 0.5313645 0.42258614 4278821823
-0.94524866 0.53102624 0.42506701 4278821823
-0.92343199 0.53067881 0.42741185 4278821823
-0.91809916 0.53074121 0.42096281 4278821823
-0.65054548 0.41635907 0.43901816 4278821823
-0.64570916 0.41658726 0.43605489 4278821823
-0.63927615 0.41683435 0.43469954 4278821823
-0.64562923 0.42519128 0.43493021 4278821823
-0.63458228 0.42350447 0.43283325 4278821823
-0.65499473 0.43753722 0.4348582 4278821823
-0.64381981 0.43534338 0.43488514 4278821823
-0.65332484 0.44557855 0.43456173 4278821823
-0.64375329 0.44505483 0.43505907 4278821823
-0.65207666 0.45548663 0.43513146 4278821823
-0.64640909 0.45364237 0.43636891 4278821823
-0.65161365 0.46703005 0.43418786 4278821823
-0.64769864 0.46453267 0.43533391 4278821823
-0.66153699 0.47878113 0.43094119 4278821823
-0.65350199 0.47565326 0.43545154 4278821823
-0.64891136 0.47311032 0.43546006 4278821823
-0.66250402 0.48762813 0.43492317 4278821823
-0.65653259 0.48381677 0.43589163 4278821823
-0.64942002 0.48052248 0.43122864 4278821823
-0.68269759 0.49840581 0.4340618 4278821823
-0.67471647 0.49555847 0.43511572 4278821823
-0.66677666 0.49227908 0.43501905 4278821823
-0.74206853 0.50964379 0.43062612 4278821823
-0.73528719 0.50910479 0.43401676 4278821823
-0.72347784 0.50939852 0.43456635 4278821823
-0.71480227 0.50874585 0.43506703 4278821823
-0.70525986 0.5065524 0.43485352 4278821823
-0.69477195 0.50394171 0.43541598 4278821823
-0.68653828 0.50152797 0.43491092 4278821823
-0.67906183 0.50108904 0.43647555 4278821823
-0.82146573 0.51961148 0.43769544 4278821823
-0.81501365 0.51902342 0.435269 4278821823
-0.80243194 0.5181976 0.43694103 4278821823
-0.79344016 0.51828218 0.43663636 4278821823
-0.78533 0.51747948 0.43478891 4278821823
-0.77476376 0.51731354 0.43514013 4278821823
-0.76532596 0.51657492 0.43448916 4278821823
-0.75476307 0.51558918 0.43513402 4278821823
-0.74517387 0.51396853 0.43525705 4278821823
-0.73544192 0.51246625 0.43484831 4278821823
-0.7255702 0.51158589 0.4353455 4278821823
-0.71718073 0.51062202 0.43627203 4278821823
-0.70856696 0.51009697 0.43921107 4278821823
-1.0244952 0.52734554 0.43481126 4278821823
-1.0153608 0.52766758 0.43404868 4278821823
-1.0044501 0.52871132 0.43552271 4278821823
-0.99469924 0.52872455 0.43414238 4278821823
-0.98549724 0.52839196 0.4347131 4278821823
-0.97539985 0.52787048 0.43564558 4278821823
-0.96549571 0.52822232 0.43295842 4278821823
-0.95414513 0.52872062 0.43518868 4278821823
-0.94479591 0.52832901 0.4349089 4278821823
-0.93467784 0.52823389 0.43534112 4278821823
-0.92461312 0.52744985 0.43532953 4278821823
-0.91515714 0.52731252 0.43507937 4278821823
-0.90546298 0.52692151 0.43530363 4278821823
-0.89454412 0.52627718 0.43492514 4278821823
-0.88487864 0.52563667 0.4344531 4278821823
-0.87464732 0.52621144 0.43535316 4278821823
-0.86453843 0.52587271 0.43547121 4278821823
-0.85523677 0.52469444 0.43502367 4278821823
-0.84504783 0.52390611 0.43517542 4278821823
-0.83461165 0.52353442 0.43538964 4278821823
-0.82446378 0.52332163 0.43387151 4278821823
-0.8153944 0.52246642 0.4332265 4278821823
-0.8051194 0.52218091 0.43486738 4278821823
-0.79646647 0.52155399 0.43463695 4278821823
-0.78700185 0.52134407 0.43340427 4278821823
-1.0307226 0.53001416 0.43147767 4278821823
-0.98325068 0.53034359 0.43007505 4278821823
-0.97424722 0.5306378 0.4322525 4278821823
-0.96408623 0.53131819 0.4350957 4278821823
-0.95609999 0.53186244 0.43761027 4278821823
-0.93252146 0.53056079 0.43512774 4278821823
-0.92506921 0.53067005 0.4323512 4278821823
-0.65245038 0.40792066 0.44360939 4278821823
-0.65085208 0.41554743 0.44679523 4278821823
-0.64827013 0.41529882 0.4451592 4278821823
-0.65070403 0.42059004 0.44847804 4278821823
-0.64718837 0.42484325 0.44453818 4278821823
-0.65479261 0.43698981 0.44522631 4278821823
-0.64511323 0.43485844 0.44474721 4278821823
-0.65249252 0.44574159 0.44540009 4278821823
-0.64429826 0.44497591 0.4448643 4278821823
-0.65205109 0.45585692 0.44525158 4278821823
-0.64625388 0.45448509 0.44502053 4278821823
-0.6522125 0.46556348 0.44300586 4278821823
-0.64531744 0.4649218 0.44548509 4278821823
-0.66055828 0.47805282 0.44640937 4278821823
-0.65348917 0.47666052 0.44512853 4278821823
-0.64767361 0.4737139 0.44541991 4278821823
-0.67141628 0.4898448 0.44159067 4278821823
-0.66229457 0.4883298 0.44500294 4278821823
-0.65665507 0.48459959 0.44535848 4278821823
-0.64993566 0.48148093 0.44575429 4278821823
-0.6832788 0.49860084 0.44507599 4278821823
-0.67459273 0.49615419 0.44518545 4278821823
-0.66605186 0.49241945 0.44539091 4278821823
-0.65832603 0.49084824 0.44612339 4278821823
-0.72245353 0.50950384 0.44324481 4278821823
-0.71535236 0.50779152 0.44395995 4278821823
-0.70464015 0.50676298 0.44519916 4278821823
-0.69494826 0.50405961 0.44487238 4278821823
-0.6868906 0.50178176 0.44522461 4278821823
-0.6781345 0.50060475 0.44389063 4278821823
-0.82391536 0.51955795 0.44490069 4278821823
-0.81686682 0.51955652 0.44171745 4278821823
-0.8048718 0.51848602 0.44309822 4278821823
-0.79360729 0.51820326 0.4424015 4278821823
-0.78446251 0.51847482 0.44427952 4278821823
-0.77541703 0.51824552 0.44399297 4278821823
-0.76468641 0.51825416 0.44476333 4278821823
-0.75476032 0.51655674 0.44483355 4278821823
-0.74488574 0.5145452 0.44512591 4278821823
-0.73543239 0.51304841 0.44489288 4278821823
-0.7256465 0.51209861 0.44500342 4278821823
-0.71785849 0.51098514 0.44468307 4278821823
-0.70889664 0.51084298 0.4480803 4278821823
-1.0137492 0.52859163 0.44281259 4278821823
-1.0042639 0.52861249 0.44432336 4278821823
-0.99500149 0.52841502 0.44540954 4278821823
-0.98523021 0.5286262 0.44427183 4278821823
-0.97585106 0.5273183 0.44456261 4278821823
-0.9643324 0.52841717 0.44534484 4278821823
-0.95312011 0.5289191 0.44288599 4278821823
-0.94529343 0.52711409 0.44397947 4278821823
-0.93408728 0.52702248 0.4437924 4278821823
-0.92384672 0.52724916 0.44370461 4278821823
-0.91500044 0.52720028 0.44489324 4278821823
-0.90498602 0.52737492 0.44516891 4278821823
-0.89499497 0.5267905 0.44535232 4278821823
-0.88508308 0.52614188 0.44485825 4278821823
-0.87531996 0.52532959 0.44536948 4278821823
-0.86475194 0.52489495 0.44444132 4278821823
-0.85443449 0.52417529 0.44491351 4278821823
-0.84496832 0.52366722 0.44496113 4278821823
-0.83468652 0.52328134 0.44562447 4278821823
-0.8267318 0.52175689 0.44424933 4278821823
-0.81412435 0.52035969 0.44620585 4278821823
-0.80567169 0.52226645 0.44408679 4278821823
-0.7954722 0.52240092 0.44625124 4278821823
-0.78548861 0.52179414 0.44626281 4278821823
-0.77606487 0.52064323 0.44736853 4278821823
-0.7661224 0.5204941 0.44707465 4278821823
-0.75768894 0.52026409 0.44622386 4278821823
-1.0041215 0.53138804 0.4490357 4278821823
-0.98248196 0.5300318 0.44682264 4278821823
-0.9785943 0.53004169 0.44684827 4278821823
-0.94389319 0.53041321 0.4422529 4278821823
-0.93564928 0.53067797 0.44455594 4278821823
-0.92456132 0.53130847 0.44786564 4278821823
-0.65175867 0.40946278 0.4547683 4278821823
-0.65123987 0.41339338 0.45289502 4278821823
-0.64818382 0.4168511 0.45526877 4278821823
-0.65051788 0.42732009 0.45827958 4278821823
-0.64704835 0.42550579 0.45525956 4278821823
-0.65569812 0.43593249 0.45476496 4278821823
-0.64596915 0.435296 0.4545669 4278821823
-0.65365958 0.44515133 0.45526004 4278821823
-0.64444029 0.44510585 0.45534399 4278821823
-0.65301925 0.45547256 0.45534232 4278821823
-0.64399016 0.45493662 0.45526266 4278821823
-0.65265274 0.46564704 0.45538217 4278821823
-0.64580905 0.46527147 0.455221 4278821823
-0.65283376 0.47589251 0.45400867 4278821823
-0.6484164 0.47385257 0.45496196 4278821823
-0.66172391 0.48821184 0.45438179 4278821823
-0.65583909 0.48461244 0.45485452 4278821823
-0.64904368 0.48124582 0.45712194 4278821823
-0.68293047 0.49900088 0.45370102 4278821823
-0.67464256 0.49683502 0.45502302 4278821823
-0.66556102 0.49287686 0.45529386 4278821823
-0.65859926 0.49064898 0.45549184 4278821823
-0.72273374 0.5084269 0.45458162 4278821823
-0.71366566 0.50842434 0.4540596 4278821823
-0.70483524 0.50781721 0.45440257 4278821823
-0.69498712 0.50474364 0.45504737 4278821823
-0.68520063 0.50156254 0.4553555 4278821823
-0.6782282 0.50053352 0.45698974 4278821823
-0.82770127 0.51984656 0.45161092 4278821823
-0.80637795 0.51893067 0.4502666 4278821823
-0.79301703 0.51978564 0.45535064 4278821823
-0.78647143 0.51953065 0.45303583 4278821823
-0.77388424 0.51899439 0.45419991 4278821823
-0.76478529 0.51779854 0.45518431 4278821823
-0.75450891 0.51724827 0.45477328 4278821823
-0.74504471 0.51533246 0.45424628 4278821823
-0.73478556 0.51412886 0.45522699 4278821823
-0.72548825 0.51224571 0.45504221 4278821823
-0.71734905 0.51094347 0.45487344 4278821823
-0.70507574 0.51097548 0.45728371 4278821823
-0.69853336 0.51057875 0.45693836 4278821823
-0.99368918 0.52744842 0.45056745 4278821823
-0.98260194 0.52743727 0.45384809 4278821823
-0.97499275 0.52615047 0.45321825 4278821823
-0.96519744 0.52734047 0.45484564 4278821823
-0.95588511 0.52729434 0.4543238 4278821823
-0.94444686 0.52711856 0.45410433 4278821823
-0.93466282 0.52752596 0.45587611 4278821823
-0.9255507 0.52728498 0.45381054 4278821823
-0.91484016 0.5269925 0.4551419 4278821823
-0.90369862 0.5272724 0.45408568 4278821823
-0.89451241 0.52685368 0.45469368 4278821823
-0.88480967 0.52610195 0.45447928 4278821823
-0.87530458 0.52540863 0.45492196 4278821823
-0.86482918 0.52507436 0.45521283 4278821823
-0.85508156 0.52431679 0.45544213 4278821823
-0.8450138 0.52385747 0.45461094 4278821823
-0.83486164 0.52302653 0.45482725 4278821823
-0.82474816 0.52199602 0.45533997 4278821823
-0.81548262 0.52136642 0.45549726 4278821823
-0.80518889 0.52209687 0.45547646 4278821823
-0.79570931 0.52208674 0.45457554 4278821823
-0.7839483 0.52041984 0.4556849 4278821823
-0.77540559 0.52101845 0.45342973 4278821823
-0.76778561 0.52080429 0.45236385 4278821823
-0.75494301 0.52096093 0.4569616 4278821823
-0.74516284 0.52081758 0.45724422 4278821823
-0.73961848 0.52044713 0.45606041 4278821823
-0.99322885 0.53128392 0.45301357 4278821823
-0.98351634 0.53010905 0.45481968 4278821823
-0.97100425 0.53078014 0.45905533 4278821823
-0.92239225 0.53027296 0.45921814 4278821823
-0.91368973 0.53154528 0.45565641 4278821823
-0.90523499 0.53038591 0.45415846 4278821823
-0.89613324 0.53081411 0.45919546 4278821823
-0.65177423 0.41356811 0.46539378 4278821823
-0.64763951 0.41646421 0.46447906 4278821823
-0.6507355 0.42188671 0.46171796 4278821823
-0.64698958 0.42498237 0.46571097 4278821823
-0.65484446 0.43779054 0.46463197 4278821823
-0.64567852 0.43498135 0.46485496 4278821823
-0.65291178 0.445023 0.46541309 4278821823
-0.64577413 0.44489151 0.46518117 4278821823
-0.65264684 0.4555974 0.46562076 4278821823
-0.64689273 0.45500696 0.46489015 4278821823
-0.65517414 0.46487826 0.46488968 4278821823
-0.64632893 0.46511012 0.46502694 4278821823
-0.65312958 0.47594163 0.46532306 4278821823
-0.648305 0.47418624 0.46475989 4278821823
-0.66118169 0.48810264 0.46422255 4278821823
-0.65619314 0.48494008 0.4650825 4278821823
-0.6494686 0.48162186 0.46457341 4278821823
-0.68135154 0.49852383 0.4645409 4278821823
-0.67436904 0.49752617 0.465121 4278821823
-0.66576624 0.49350438 0.46528101 4278821823
-0.65915704 0.49136597 0.46573785 4278821823
-0.7211017 0.5088619 0.46575591 4278821823
-0.71355742 0.50866908 0.46642265 4278821823
-0.70472926 0.50772828 0.46510267 4278821823
-0.69524974 0.50539714 0.4649621 4278821823
-0.68526059 0.50227946 0.46492985 4278821823
-0.67854738 0.50071752 0.46471655 4278821823
-0.80210662 0.51986587 0.46762457 4278821823
-0.79596126 0.51939881 0.46359104 4278821823
-0.78321218 0.51874685 0.46710616 4278821823
-0.77455366 0.51849687 0.46478495 4278821823
-0.76495737 0.51721513 0.46517879 4278821823
-0.75435787 0.51624614 0.46357092 4278821823
-0.74424559 0.51580721 0.46506763 4278821823
-0.73512489 0.51398295 0.46465182 4278821823
-0.7249608 0.51243657 0.46517304 4278821823
-0.7175743 0.51140779 0.46509305 4278821823
-0.7061165 0.51085281 0.4632633 4278821823
-0.97111386 0.52874273 0.46047327 4278821823
-0.95377707 0.52955925 0.46188897 4278821823
-0.94392556 0.52980173 0.46290138 4278821823
-0.9360249 0.52872008 0.46515974 4278821823
-0.92404354 0.52822465 0.46557933 4278821823
-0.91445965 0.52650523 0.46480119 4278821823
-0.9066509 0.52500284 0.46464866 4278821823
-0.89528376 0.52602524 0.46495879 4278821823
-0.8835395 0.52740371 0.46372765 4278821823
-0.87608445 0.52670228 0.46466213 4278821823
-0.86503804 0.52577925 0.4654687 4278821823
-0.85504001 0.5241909 0.46484941 4278821823
-0.84505069 0.5235666 0.46472436 4278821823
-0.8343671 0.52457416 0.46542764 4278821823
-0.82512832 0.52355218 0.46502489 4278821823
-0.81617707 0.52199936 0.46489757 4278821823
-0.80524445 0.52222788 0.46529117 4278821823
-0.79505754 0.52116001 0.46460569 4278821823
-0.7854237 0.52082431 0.46408918 4278821823
-0.77864087 0.52101439 0.46379557 4278821823
-0.76024139 0.52165616 0.4604665 4278821823
-0.75364262 0.52144819 0.46214154 4278821823
-0.74561477 0.52073693 0.46360609 4278821823
-0.96160066 0.53095186 0.46153146 4278821823
-0.95589 0.53159189 0.46292347 4278821823
-0.94616908 0.53351867 0.46652216 4278821823
-0.93564272 0.53218168 0.46721062 4278821823
-0.9260326 0.53030109 0.46321228 4278821823
-0.91775697 0.53046882 0.46045944 4278821823
-0.89409876 0.53094208 0.46118292 4278821823
-0.88643444 0.53129578 0.46260703 4278821823
-0.65707314 0.40880391 0.47111151 4278821823
-0.65208393 0.41442513 0.47657576 4278821823
-0.64844251 0.41763461 0.47563115 4278821823
-0.65096331 0.42501277 0.47785971 4278821823
-0.64800203 0.42545971 0.47425684 4278821823
-0.65313172 0.43707818 0.47308388 4278821823
-0.64685559 0.43486851 0.47502762 4278821823
-0.65429038 0.44520882 0.47446716 4278821823
-0.64382601 0.44520473 0.47582868 4278821823
-0.63922435 0.44719052 0.47520468 4278821823
-0.65462857 0.45505974 0.47461778 4278821823
-0.6443727 0.45607021 0.4754183 4278821823
-0.63900399 0.45251128 0.4740023 4278821823
-0.65216827 0.46595046 0.47549656 4278821823
-0.64730191 0.46480545 0.47460431 4278821823
-0.66083711 0.47857544 0.47767872 4278821823
-0.65332073 0.47642329 0.47411251 4278821823
-0.64836562 0.47457784 0.4752878 4278821823
-0.66120952 0.48788571 0.47494566 4278821823
-0.65643311 0.48394692 0.47434771 4278821823
-0.64879227 0.48139584 0.47692093 4278821823
-0.68120325 0.49926525 0.47309476 4278821823
-0.67449927 0.49819091 0.47529241 4278821823
-0.66532087 0.49403927 0.47475103 4278821823
-0.65911317 0.49113238 0.47567889 4278821823
-0.72235978 0.50909585 0.47238076 4278821823
-0.7136957 0.5084697 0.47310701 4278821823
-0.70474392 0.50741619 0.47492686 4278821823
-0.69509166 0.50555497 0.47463599 4278821823
-0.68501872 0.50309652 0.47505376 4278821823
-0.67696136 0.50126171 0.47618449 4278821823
-0.66888148 0.50012958 0.47166547 4278821823
-0.81158096 0.51993906 0.47801954 4278821823
-0.80583662 0.51947391 0.47414312 4278821823
-0.79526335 0.5185892 0.47397959 4278821823
-0.78400373 0.5188008 0.47391352 4278821823
-0.77538931 0.51819074 0.47400403 4278821823
-0.76446998 0.51788652 0.47399563 4278821823
-0.75535566 0.51626098 0.47565445 4278821823
-0.74562967 0.51437616 0.47506166 4278821823
