# .PCD v0.7 - Point Cloud Data file format
VERSION 0.7
FIELDS x y z rgba
SIZE 4 4 4 4
TYPE F F F U
COUNT 1 1 1 1
WIDTH 1081
HEIGHT 1
VIEWPOINT 0 0 0 1 0 0 0
POINTS 1081
DATA ascii
-0.70567197 0.48321787 0.20827362 4284508538
-0.6956377 0.48410866 0.20937955 4284179577
-0.68869662 0.48051494 0.20990802 4280957782
-1.1201916 0.49970707 0.20193245 4283786863
-1.0830423 0.4988842 0.20084399 4282400086
-1.0743971 0.49911922 0.20291844 4281742929
-1.065702 0.49822226 0.20224722 4281940310
-1.0541428 0.49950677 0.20632632 4282266452
-1.0433353 0.49805862 0.20815074 4282331734
-1.03501 0.49842623 0.20459251 4281807701
-1.0298023 0.49851209 0.20171423 4282266712
-0.98163801 0.49844542 0.20675449 4281872729
-0.97475249 0.49740383 0.20412964 4282003542
-0.96421421 0.49660775 0.20556605 4281610065
-0.95452708 0.49632239 0.2052055 4281282642
-0.94284165 0.4972356 0.20528369 4281217363
-0.93401444 0.49660254 0.20480126 4281479508
-0.92568845 0.49473333 0.20478964 4281479507
-0.91303509 0.49449116 0.20504196 4281611090
-0.90646398 0.49194354 0.20474729 4281676113
-0.89547086 0.4928537 0.20760383 4281610837
-0.88569957 0.49302813 0.20744963 4281152341
-0.874874 0.49440104 0.20760867 4281021269
-0.86639374 0.49371424 0.2055808 4281218391
-0.85410368 0.49470356 0.20558535 4281152854
-0.84619313 0.49227691 0.20688985 4281217364
-0.75398952 0.49032316 0.20820758 4280755009
-0.73690528 0.49435869 0.20907497 4280687156
-0.72442257 0.49488559 0.20801809 4284047729
-1.1216694 0.50211179 0.20257749 4285826700
-1.1177576 0.50340027 0.20765431 4283587429
-1.103794 0.50557643 0.20764315 4280561983
-1.0952355 0.50368094 0.20514955 4281219148
-1.0863159 0.5020051 0.20635697 4281415507
-1.0758274 0.50156897 0.20663653 4281546065
-1.0661241 0.50188214 0.20790754 4281743444
-1.0531089 0.50114226 0.20541212 4281480017
-1.0460424 0.500076 0.20481713 4282266452
-1.0384636 0.50066406 0.20418298 4281742165
-1.0216686 0.50107384 0.20709778 4282069848
-1.0165367 0.50147665 0.20568104 4282200662
-1.0057994 0.50255227 0.20491129 4282069077
-0.99313468 0.50326723 0.20843427 4281675862
-0.98653334 0.50176197 0.20454603 4281086550
-0.97999293 0.50067651 0.20220603 4281414486
-0.72487402 0.50423086 0.20901299 4283519333
-1.0733086 0.56725955 0.2036958 4279967032
-1.0650642 0.56605572 0.2076526 4282074456
-1.0582482 0.56782299 0.20679255 4283392111
-1.0742836 0.57506222 0.20554239 4280359997
-1.0752802 0.58515358 0.20482045 4280557893
-1.0758733 0.59535199 0.2047524 4280623941
-1.0760125 0.60460585 0.20556413 4280230725
-1.0810153 0.61697602 0.20728162 4280558920
-1.0777534 0.61400121 0.20403717 4279903302
-1.0804937 0.62268502 0.20193627 4280493126
-1.0781996 0.62497401 0.2059 4280361540
-1.0811868 0.63712007 0.20248453 4281148231
-1.0772514 0.63473362 0.20560516 4280820550
-1.082319 0.6459316 0.20462711 4280820036
-1.0788624 0.64392596 0.20596416 4280754500
-1.0831748 0.65516955 0.20566697 4280296518
-1.0846934 0.66536766 0.20485014 4280820804
-1.0905948 0.67754447 0.20506275 4280493125
-1.0872377 0.67471617 0.20560645 4280624196
-1.0921694 0.68505263 0.20507959 4281017672
-1.0893065 0.68180776 0.20485282 4280755014
-1.0939082 0.69508004 0.20447302 4281082696
-1.1006045 0.70766735 0.20394981 4281082439
-1.0965565 0.70438045 0.20451473 4280951367
-1.1005394 0.71105015 0.2011988 4281017415
-1.0954731 0.71571189 0.20562163 4280886343
-1.094915 0.72554845 0.20553552 4281017673
-1.1019421 0.73599052 0.20539042 4280428617
-1.0973994 0.73327243 0.20507559 4280821576
-1.1017972 0.74543762 0.20574374 4280690762
-1.0993793 0.7453475 0.20434578 4280625227
-1.1018937 0.75544059 0.20455623 4280559176
-1.0994475 0.75640428 0.20646444 4280493637
-1.1051092 0.76083231 0.20469615 4280690503
-1.5958408 0.29268011 0.21196467 4283921012
-1.5888433 0.29830334 0.21689822 4283921272
-1.5922943 0.30608076 0.21671712 4283986035
-1.5888269 0.30411986 0.2123307 4284118391
-1.5945499 0.31473446 0.21381225 4283854967
-1.5872065 0.31965858 0.21870102 4283789947
-1.5956455 0.32152593 0.21038161 4282603877
-1.5885082 0.32596126 0.21600345 4281352785
-0.64886248 0.44799843 0.21834178 4279966269
-0.65078014 0.45551068 0.21727002 4279638076
-0.64910531 0.45363253 0.21861164 4279572540
-0.65386051 0.46585473 0.21651579 4279902790
-0.68157583 0.47899452 0.21382727 4281477970
-0.67584735 0.47746262 0.21506907 4281608530
-0.66461688 0.47512645 0.21586749 4280756556
-0.65738624 0.47182727 0.21747924 4280560203
-0.81273544 0.48902446 0.21080768 4280889170
-0.80451775 0.48889303 0.21247995 4281414487
-0.79563916 0.48811787 0.21210942 4281609556
-0.78581637 0.48815775 0.2123266 4281217366
-0.77442813 0.488206 0.21199234 4281021268
-0.76659888 0.48966819 0.214076 4281675602
-0.75276679 0.48853794 0.21304256 4282005849
-0.7462756 0.48814091 0.21503341 4281807444
-0.7360521 0.48958096 0.21560036 4281412429
-0.72474277 0.48747978 0.21301872 4280032828
-0.71660137 0.48580629 0.21531604 4280822859
-0.70558751 0.48547596 0.21505827 4281022032
-0.69488937 0.48434997 0.21457268 4281414482
-0.68485183 0.48248139 0.21602462 4281019731
-1.0347617 0.49848068 0.21020116 4281807702
-0.97531658 0.49863079 0.21070647 4281806932
-0.96455884 0.49903005 0.21223712 4281348945
-0.95510113 0.4991084 0.21464217 4281480275
-0.94565028 0.49945915 0.21471976 4281479763
-0.93133229 0.49801633 0.21054952 4281676886
-0.92346829 0.49869642 0.21254669 4281676373
-0.91701961 0.49731475 0.21325196 4281872724
-0.90323454 0.49636501 0.21332733 4282004309
-0.89415109 0.49811384 0.21613038 4281741652
-0.88460171 0.49644527 0.21522373 4281348694
-0.87572896 0.49609971 0.21454577 4281217621
-0.86687011 0.49638876 0.2149376 4281086805
-0.85515523 0.49683577 0.21472672 4281348953
-0.84521431 0.49467286 0.2150442 4281021272
-0.83453971 0.49319676 0.21442404 4281152085
-0.8250376 0.49256951 0.21533078 4281020756
-0.81500536 0.49219516 0.21645914 4280889170
-0.80513906 0.49171081 0.21701112 4281282644
-0.79696375 0.49120584 0.21621227 4281348180
-0.78568888 0.49197423 0.21728122 4281478741
-0.775105 0.49194592 0.21691097 4281413461
-0.7640003 0.4914642 0.21759555 4281545045
-0.75626165 0.49053052 0.21551825 4281808214
-0.74817419 0.49076751 0.21834946 4282004311
-0.73540002 0.49270582 0.213112 4281213249
-0.725528 0.4925921 0.2147826 4280491582
-0.71989852 0.49021345 0.2194356 4281280589
-1.1225435 0.5048123 0.21471885 4286021512
-1.1160674 0.5051657 0.21614955 4283323487
-1.104373 0.50608945 0.21620411 4281413954
-1.094366 0.50450104 0.21412961 4281874514
-1.0854586 0.50335073 0.21530215 4281677139
-1.0744962 0.5023436 0.21454342 4281676369
-1.0644372 0.50287724 0.21579467 4281742416
-1.0551223 0.50231332 0.21457788 4281545554
-1.0437632 0.50244403 0.21538089 4281414227
-1.0348808 0.50159895 0.21505837 4281348947
-1.0237392 0.50287992 0.21560033 4281152083
-1.0145849 0.50241524 0.21469425 4281217362
-1.0050184 0.50220281 0.21638095 4281479507
-0.99533182 0.50184464 0.21438415 4281478993
-0.98509723 0.50075459 0.21558014 4281478990
-0.97570455 0.50083512 0.21572305 4281741648
-0.96537906 0.50136977 0.21712634 4281610319
-0.9591251 0.50172108 0.21681179 4281218129
-0.94166529 0.50021839 0.21795841 4281413712
-0.93383509 0.50102657 0.21611616 4281610837
-0.92561775 0.50114405 0.21627857 4282004053
-0.91896772 0.50099808 0.21689111 4282200405
-0.90564805 0.50173682 0.21803749 4282003796
-0.88680685 0.50053936 0.21977811 4281479766
-0.72493619 0.50451118 0.21049495 4280491573
-1.0850552 0.55773669 0.2157568 4282602854
-1.0725336 0.56639016 0.21421452 4279639862
-1.0656265 0.56414688 0.2116207 4283655538
-1.0739179 0.57510781 0.21476167 4280294717
-1.0694537 0.57596821 0.21955688 4280032059
-1.0750293 0.58508629 0.21468115 4280361027
-1.0754611 0.59532893 0.21469811 4280361540
-1.0748967 0.60482472 0.21429759 4280427333
-1.0806913 0.61241353 0.21028961 4281018187
-1.0755165 0.61473072 0.21553507 4280820551
-1.0804456 0.62234557 0.21275027 4280951623
-1.0769622 0.6250698 0.21637458 4280689221
-1.0802912 0.63938999 0.21194212 4281344582
-1.0777793 0.63463253 0.21491246 4280885572
-1.0817231 0.64625418 0.21434401 4280885829
-1.0784683 0.64379382 0.21602581 4280623427
-1.0827655 0.65503114 0.21521375 4280492869
-1.0795192 0.65235078 0.21645638 4280755271
-1.0848653 0.66461372 0.2146797 4280886085
-1.0867062 0.67200339 0.21338272 4280689990
-1.0895875 0.68803144 0.21110614 4281215051
-1.0917829 0.69325894 0.21077286 4281279817
-1.0920821 0.70718586 0.21104541 4280689991
-1.0896997 0.70093518 0.21185833 4281279303
-1.0933974 0.71626586 0.21151897 4280231243
-1.0932 0.72376335 0.21064635 4281017678
-1.0978327 0.73376542 0.21074586 4280558406
-1.1013235 0.74043089 0.21150042 4281084233
-1.097837 0.74642158 0.21150708 4280952647
-1.1017462 0.75490934 0.21155344 4280624455
-1.099354 0.7508533 0.21063705 4280624966
-1.1043483 0.76192486 0.21051864 4280820807
-1.5932372 0.29797336 0.22465321 4283854707
-1.5822235 0.29760182 0.22741185 4284117108
-1.5706236 0.29908118 0.22772565 4284248181
-1.5955366 0.30487052 0.22319426 4284183157
-1.5880185 0.30703154 0.22994122 4284576373
-1.5699971 0.3022235 0.22420415 4283789428
-1.590713 0.31490314 0.22839585 4284575604
-1.5885412 0.31439102 0.22508925 4284379253
-1.5910698 0.32594505 0.22038722 4281220687
-1.5838249 0.32510591 0.22568901 4282209378
-1.5838909 0.33038062 0.22593772 4279641142
-0.64529335 0.40861291 0.22810553 4280228152
-0.64523274 0.41641384 0.22765484 4280162619
-0.6456396 0.42491984 0.22660108 4279901241
-0.64360535 0.43519744 0.22498067 4280097595
-0.64318633 0.44522008 0.22512808 4280097340
-0.65062791 0.45772666 0.22120392 4280098364
-0.64515704 0.45531562 0.22562142 4280294461
-0.65192854 0.46615118 0.22314534 4280623428
-0.64806134 0.46374053 0.22688149 4280557379
-0.67398387 0.47883973 0.22172396 4280625486
-0.66375643 0.47752702 0.22354658 4280166733
-0.6554625 0.47415027 0.22557414 4280624201
-0.64971757 0.4712643 0.22715829 4280623943
-0.74215972 0.48929858 0.22199009 4281609297
-0.73758125 0.48981497 0.22227955 4281346382
-0.71106058 0.48893723 0.22023442 4281083980
-0.70410347 0.48853785 0.22462133 4281149773
-0.69442642 0.48678938 0.22552589 4281018703
-0.68514347 0.48436862 0.22454481 4280101712
-0.67542607 0.48205778 0.22633934 4280297804
-0.66650832 0.48070636 0.22717869 4279904842
-0.95104408 0.49978566 0.22366883 4281480021
-0.94987285 0.49979308 0.22166443 4281480275
-0.91996688 0.49886698 0.22025923 4282462038
-0.90288812 0.49989757 0.22007893 4282266198
-0.89533913 0.49993962 0.22204824 4281806931
-0.88236606 0.49852949 0.22227409 4281087319
-0.87514287 0.49762413 0.22234929 4281282900
-0.86337548 0.49945298 0.22245891 4281283412
-0.85545331 0.49888363 0.22412674 4281152596
-0.84509069 0.49798387 0.22245498 4281021269
-0.83508724 0.49718475 0.22458874 4281151575
-0.82338721 0.49717265 0.22533083 4281151061
-0.81565839 0.495107 0.22493982 4281216853
-0.80494785 0.49403057 0.22550543 4281151315
-0.79345089 0.49506205 0.22528145 4281151058
-0.78382641 0.49561429 0.22479935 4281347923
-0.77378839 0.4952212 0.22509351 4281151316
-0.76452649 0.49407881 0.22551391 4281020758
-0.75506777 0.49288237 0.22435123 4281218392
-0.74506563 0.49231306 0.22581117 4282069592
-0.73391509 0.49277642 0.22646964 4281544019
-0.72433442 0.49384883 0.22530203 4281216080
-0.71499658 0.49253419 0.22526261 4281150285
-0.70815158 0.49136597 0.22570714 4281411917
-1.1264462 0.50478762 0.221398 4285430659
-1.1149268 0.50788921 0.22483516 4284311152
-1.1048651 0.50802284 0.22457163 4282072653
-1.0956109 0.50725824 0.22426057 4281676361
-1.0843772 0.50666022 0.22534862 4281873233
-1.0750487 0.50474769 0.22430182 4281348687
-1.0656973 0.50570416 0.2251042 4281348944
-1.0544006 0.50530195 0.22492327 4280889936
-1.0453813 0.50431734 0.22528616 4280693330
-1.0338365 0.50422925 0.22387978 4280299857
-1.0259345 0.50531292 0.22595254 4280299600
-1.015152 0.50488794 0.22508822 4280299087
-1.0039617 0.50466746 0.22480392 4280561488
-0.99474728 0.5040738 0.22473142 4281216595
-0.98562253 0.50521541 0.22613029 4281216082
-0.97622019 0.50436592 0.22531389 4281215826
-0.96485186 0.50339866 0.22421141 4281938773
-0.95393515 0.50351202 0.22505601 4281807700
-0.94446272 0.50123781 0.22477125 4281544786
-0.93626153 0.50310791 0.22561839 4281347664
-0.92555934 0.50339216 0.22461674 4281544531
-0.91610414 0.50399083 0.22632433 4281478996
-0.9039427 0.50375277 0.22541186 4281741398
-0.89472985 0.50178009 0.22701389 4281282901
-0.88454962 0.50059479 0.22523859 4281021013
-0.87481093 0.50096005 0.22803871 4280168529
-0.86346126 0.50157923 0.22803327 4280955992
-0.85808754 0.501724 0.22725555 4281348951
-0.84363526 0.50052625 0.2276262 4281544788
-0.83766836 0.50042808 0.2274434 4281806677
-1.1049955 0.51056749 0.22918688 4283455589
-1.0724937 0.56696695 0.22113797 4278192932
-1.0715343 0.57481384 0.22400802 4280752956
-1.0688101 0.57446265 0.22494923 4279966008
-1.0718604 0.58510101 0.2247142 4280754499
-1.069521 0.58262467 0.22510777 4281016127
-1.0724834 0.59516507 0.22420344 4280754245
-1.0691966 0.59532309 0.22740164 4280558150
-1.0729262 0.60484707 0.22562443 4280624198
-1.0697588 0.60324156 0.22218111 4280951622
-1.0748737 0.61516732 0.22439961 4280296004
-1.0808319 0.62542868 0.22376066 4280622658
-1.0777016 0.62340742 0.22531223 4280229955
-1.0807557 0.63426912 0.22603361 4280557633
-1.0783591 0.63408262 0.22438496 4280885059
-1.0807457 0.64915109 0.22636215 4280165189
-1.0778842 0.64494401 0.22476263 4280361283
-1.0823243 0.65559071 0.22402991 4280623683
-1.0784928 0.6540131 0.22935446 4280164929
-1.083829 0.66233569 0.22285259 4281017413
-1.5951111 0.28980339 0.234227 4284247922
-1.6007124 0.2961131 0.23886076 4283854705
-1.5968117 0.29560903 0.23259787 4284116850
-1.5862689 0.29442072 0.2367976 4284313458
-1.5723221 0.29907042 0.23063231 4284313201
-1.591749 0.30543017 0.23755661 4283657583
-1.5897263 0.30702072 0.23286377 4283985777
-1.5935895 0.3133072 0.23454997 4283920756
-1.5865291 0.32565638 0.23412658 4281156433
-0.64321464 0.39681861 0.23716515 4280623930
-0.64422226 0.40531671 0.23487467 4279900729
-0.64378411 0.41443813 0.23441289 4279901242
-0.6431272 0.42425928 0.23496161 4279573048
-0.6410622 0.4353151 0.23512909 4279507513
-0.63935286 0.43598861 0.23620509 4279376697
-0.64113754 0.44519731 0.23398647 4279835194
-0.63962412 0.44326374 0.23603995 4279573048
-0.64175892 0.45471799 0.23499586 4280228924
-0.63982028 0.45241034 0.2377411 4280359996
-0.65072381 0.46861011 0.23094679 4280821065
-0.64505297 0.46496785 0.23511024 4280557892
-0.6628834 0.47916204 0.23240435 4280886858
-0.65450835 0.47584477 0.23452252 4281214282
-0.64793295 0.47229651 0.23748225 4281213767
-0.70498079 0.48904195 0.23139477 4281477708
-0.6936776 0.48782194 0.23338738 4281018701
-0.68517923 0.48693657 0.23504035 4280232269
-0.67520034 0.48521325 0.23501398 4280821580
-0.66522598 0.48263514 0.23614155 4280952394
-0.65838319 0.48008987 0.23718379 4281214796
-0.83331108 0.49867693 0.2312973 4281282133
-0.82132494 0.49826944 0.23100697 4281281876
-0.81417495 0.49812222 0.23252921 4281282646
-0.80580831 0.4969306 0.23445575 4281282389
-0.79353857 0.49872133 0.23578833 4281281874
-0.78574538 0.49877074 0.23262697 4281151571
-0.77366364 0.49848607 0.23406774 4281020499
-0.76555312 0.49576414 0.2352646 4280692820
-0.75486821 0.49502316 0.23460133 4280626515
-0.74470782 0.49533844 0.23405483 4281085781
-0.73525923 0.49538538 0.23565739 4281346898
-0.72444451 0.49449134 0.23448552 4281346897
-0.71488518 0.4925217 0.23570803 4280887887
-0.70473677 0.4917711 0.23564592 4281346638
-0.69707131 0.49067366 0.23753262 4280952909
-0.68910676 0.49103171 0.23854613 4281149003
-1.0909154 0.50861841 0.2300704 4281808464
-1.0824502 0.50896335 0.23555537 4281348944
-1.0739918 0.50825596 0.23416553 4281282895
-1.0643373 0.50829601 0.23599866 4281086029
-1.0553613 0.50633729 0.23390515 4280561485
-1.0456114 0.50603622 0.2349683 4280758353
-1.0354806 0.50618958 0.23464754 4281085520
-1.0209116 0.50876033 0.23382704 4281282642
-1.0156798 0.50890195 0.23187649 4280692047
-1.0053605 0.50833166 0.23344371 4281020499
-0.99509043 0.50865698 0.23480116 4280823634
-0.98435771 0.50754154 0.2340637 4280954192
-0.97732365 0.50691468 0.23436233 4281346896
-0.9617219 0.50783354 0.23560859 4281740369
-0.95510429 0.50666022 0.2348001 4281478995
-0.94548166 0.50516671 0.2346952 4281414229
-0.93596363 0.50579971 0.235129 4281282899
-0.92514449 0.50587815 0.23394988 4281609809
-0.91482407 0.506603 0.2355997 4281937747
-0.90572983 0.5041936 0.23404907 4281741654
-0.89492399 0.50333571 0.23608588 4281413460
-0.88546032 0.50270611 0.23434576 4281740627
-0.87413675 0.50303406 0.23490837 4281478995
-0.86612624 0.50331181 0.23548098 4281085779
-0.85594738 0.5032472 0.23567241 4280889429
-0.84473258 0.50216401 0.23454477 4281086038
-0.83523142 0.50174606 0.23586428 4281085267
-0.82499361 0.50146389 0.23647515 4281216339
-0.81504202 0.50158429 0.23683505 4281413462
-0.80682856 0.50104839 0.23812158 4281282646
-0.78412277 0.50101769 0.23767267 4281281873
-0.77587402 0.50161791 0.23801224 4281413716
-1.1142938 0.51022714 0.23511329 4284576633
-1.1047508 0.51052111 0.23488049 4281877841
-1.0950465 0.51086468 0.23501217 4281020741
-1.0854949 0.51116586 0.23584253 4281283662
-1.0135856 0.51189303 0.23748562 4281282129
-1.006019 0.51161492 0.23808017 4281216851
-0.98413092 0.51157725 0.23850031 4280364880
-0.96293867 0.51053107 0.23557976 4281478226
-0.91898245 0.51029962 0.23942409 4281282642
-1.0723586 0.56903368 0.23524135 4278457390
-1.0720952 0.57508761 0.23538254 4279245882
-1.0692856 0.57353127 0.23180313 4279442233
-1.0716754 0.58546406 0.23584662 4279968063
-1.0687057 0.5858196 0.23398073 4279510080
-1.0737224 0.59547305 0.23500732 4279903043
-1.0760332 0.60524452 0.2350768 4280295748
-1.0759501 0.61510742 0.23470722 4280164419
-1.0809698 0.62887073 0.23194079 4280229951
-1.077625 0.62495106 0.23492068 4280164674
-1.0821251 0.63224572 0.2312782 4280230208
-1.0770003 0.63534778 0.23605911 4280492096
-1.0764199 0.64558971 0.23462918 4280426819
-1.077252 0.65432 0.23569606 4280885828
-1.0815318 0.66141951 0.23939098 4280689732
-1.0763252 0.66033787 0.23135073 4280820289
-1.1042084 0.75571531 0.23426197 4280690505
-1.0998898 0.75942391 0.23462953 4280755784
-1.1013904 0.76380777 0.23376888 4280820807
-1.6002622 0.28977078 0.24304216 4284116849
-1.6018877 0.29451936 0.24210991 4284051570
-1.5931448 0.29500827 0.24807186 4284182386
-1.5889881 0.29361466 0.24206653 4284182385
-1.5954796 0.30382881 0.24517204 4283985522
-1.5947351 0.31268251 0.24407972 4283920500
-1.5885653 0.31544387 0.24557137 4283788402
-1.5922512 0.32248181 0.2463681 4282275425
-1.5888542 0.32250333 0.24055476 4283328625
-0.64741307 0.38623852 0.24578233 4283456866
-0.64496452 0.39485615 0.24465939 4280033588
-0.64446056 0.40438479 0.24456415 4279573303
-0.6420427 0.41559672 0.24408479 4279179573
-0.63980252 0.41626772 0.24678175 4279114037
-0.6407519 0.42516857 0.24538061 4279834935
-0.6395309 0.42543328 0.24554388 4279572791
-0.6404897 0.43196407 0.24591033 4279899958
-0.63886458 0.4357349 0.24470848 4280162360
-0.6383183 0.44516236 0.24491711 4280031545
-0.64137208 0.45791957 0.24509503 4280163648
-0.63886446 0.45331344 0.24561127 4280097338
-0.64385796 0.46535787 0.24508417 4280230211
-0.65404052 0.47689956 0.24525663 4280887370
-0.64745814 0.47244012 0.24454275 4280689991
-0.68401092 0.48895812 0.24316318 4281017676
-0.67505479 0.48739305 0.24525109 4280756042
-0.66513807 0.48310131 0.24483164 4280886858
-0.65856433 0.48028409 0.24478297 4281083465
-0.80297589 0.4982065 0.24014398 4281150547
-0.772852 0.49909928 0.24332584 4281348181
-0.76322103 0.4977456 0.24410756 4280364881
-0.75418496 0.498788 0.24549893 4280561233
-0.74419731 0.49845761 0.24528873 4280953938
-0.7347824 0.49787313 0.24484776 4281084497
-0.72438526 0.49782175 0.24454276 4280691534
-0.7158128 0.49550608 0.24503879 4281281359
-0.70515549 0.49404234 0.24532127 4280756299
-0.69407648 0.49274123 0.24518608 4280625229
-0.68574882 0.49121413 0.24684879 4281083469
-1.0816004 0.50907564 0.24783823 4281478988
-1.0756692 0.50912106 0.24375658 4281282381
-1.0648193 0.50919485 0.24486126 4281019468
-1.0546819 0.50833827 0.24476841 4281346637
-1.0449176 0.50774777 0.24156138 4281281872
-1.0385128 0.50837469 0.24290039 4281019726
-0.99236071 0.50968409 0.24604774 4281542991
-0.98521554 0.50778472 0.24515118 4280822863
-0.97661638 0.50752461 0.24567325 4280298831
-0.9645021 0.50777835 0.24482529 4280692302
-0.95497853 0.50722146 0.244323 4281347151
-0.94697738 0.5081569 0.24527915 4281478480
-0.93380296 0.50855356 0.24162488 4281347923
-0.92431128 0.50882387 0.24541649 4281609553
-0.91513723 0.50780302 0.24486247 4281478994
-0.90460342 0.50666612 0.24536459 4281413202
-0.89545608 0.50484329 0.24491706 4281413201
-0.88424712 0.50521594 0.24530795 4280953936
-0.87568545 0.50444794 0.24472059 4281282130
-0.863967 0.5061354 0.24565762 4281216596
-0.85453117 0.50559527 0.245316 4281216597
-0.84469032 0.50441921 0.24514286 4281085268
-0.83528286 0.50367147 0.24564755 4281150290
-0.82474136 0.50273675 0.24525739 4281281362
-0.81448102 0.5019508 0.24506296 4281412949
-0.80615848 0.50095809 0.24456127 4281544020
-0.79323363 0.50192434 0.24497318 4281674835
-0.78499204 0.50186574 0.24622574 4281674322
-0.77533734 0.5019244 0.24469775 4281609555
-0.76723385 0.50055784 0.2455945 4281216850
-0.72870523 0.50043148 0.24987751 4280756302
-1.1204797 0.51011759 0.2432027 4285298301
-1.1141182 0.5117842 0.24501924 4285035898
-1.1028316 0.51250958 0.24554457 4282665300
-1.096208 0.51123023 0.24465704 4281480517
-1.0852236 0.51137841 0.24557914 4281611083
-1.0792557 0.51140875 0.24201633 4281480015
-1.0423484 0.51061386 0.24769787 4281478223
-1.0362635 0.51077235 0.24782191 4281281358
-1.0229503 0.5134182 0.24642804 4281019470
-1.0152452 0.51310843 0.24601358 4281412945
-1.0051794 0.51240379 0.24470021 4281674577
-0.99454415 0.51177764 0.2441529 4281543504
-0.98340786 0.51000452 0.24115166 4280299087
-0.96762371 0.51050138 0.24359731 4280299088
-0.93356526 0.51191038 0.24731691 4281413201
-0.92384392 0.51080543 0.24580611 4281544273
-1.0726546 0.56896251 0.24111748 4278983217
-1.0721325 0.57532352 0.24605694 4279573048
-1.0690086 0.57325566 0.24430296 4278983219
-1.0735797 0.58437991 0.24475001 4280098622
-1.0699611 0.58504283 0.24204466 4279902013
-1.07377 0.59490526 0.24553764 4280230208
-1.0753026 0.60513902 0.24492563 4280032575
-1.0739202 0.61511469 0.24536723 4280295235
-1.0761815 0.62402475 0.24509308 4280361028
-1.0743809 0.63477725 0.24570332 4280165186
-1.0805824 0.64805031 0.24820502 4280820034
-1.0763434 0.64460516 0.24419174 4280426817
-1.0813744 0.65495574 0.24416725 4280755011
-1.0788828 0.6549933 0.24343006 4280820547
-1.0837168 0.6639986 0.24323317 4280427331
-1.0771387 0.66452152 0.24860981 4280557377
-1.0817678 0.67517269 0.24677913 4281016388
-1.0791101 0.67283964 0.24760854 4281082181
-1.084306 0.68276113 0.24873172 4280557892
-1.0851166 0.69703001 0.24748398 4280558919
-1.0904008 0.70839024 0.24763486 4280689990
-1.0836917 0.7057001 0.24587961 4281017415
-1.0910904 0.71389896 0.24451241 4280689989
-1.087557 0.71397436 0.24586575 4280755781
-1.5949652 0.29357681 0.25229543 4284247921
-1.5878173 0.29792616 0.25796625 4284181102
-1.5936481 0.30475199 0.25550145 4284116339
-1.5892164 0.30367094 0.25587022 4284050546
-1.5923297 0.31418711 0.25297576 4283395186
-1.5848674 0.31915846 0.25762433 4283854197
-1.596393 0.32297865 0.25304785 4279972930
-1.5877998 0.32475811 0.25825825 4280959052
-0.64767146 0.38756394 0.25284329 4284574067
-0.64555341 0.39488429 0.25485605 4280825671
-0.64398372 0.40522721 0.25453418 4279441460
-0.64154667 0.41508946 0.25535527 4279834677
-0.63927209 0.41837406 0.25061154 4278852405
-0.64105332 0.4244903 0.25142914 4279179316
-0.63845205 0.42565361 0.25628811 4280162870
-0.64138508 0.43102404 0.25072339 4279703864
-0.63715315 0.4357942 0.25572574 4280162103
-0.63768309 0.44521129 0.25510973 4280163129
-0.64083987 0.45642126 0.25548688 4281082436
-0.63879502 0.45466286 0.2547873 4280360511
-0.65039712 0.46858725 0.2559219 4280624712
-0.64374363 0.46545705 0.25498495 4280558404
-0.63948357 0.46371716 0.25864139 4280754757
-0.65404862 0.47559902 0.25517964 4280821320
-0.64828104 0.47160375 0.25401607 4280558918
-0.68370622 0.48939776 0.25420707 4280822092
-0.67367762 0.48699155 0.25523797 4281149258
-0.66498059 0.48297608 0.25490645 4281083210
-0.6583209 0.48058507 0.25461206 4281148745
-0.78114021 0.49968147 0.25701445 4281280336
-0.77279776 0.49993277 0.25448996 4281084753
-0.763852 0.49870157 0.25379363 4280626257
-0.75504154 0.49918732 0.25415006 4280625743
-0.74498993 0.49938381 0.25481111 4281215312
-0.73642015 0.4998728 0.25178406 4280953168
-0.72380829 0.49840724 0.25444129 4280494928
-0.7149241 0.49704134 0.25512934 4280101453
-0.70570886 0.49465597 0.25464717 4280887629
-0.69486815 0.49287379 0.25510457 4280624970
-0.68619037 0.49119699 0.25450984 4280690763
-0.67740005 0.49042508 0.25518927 4280887626
-1.0841098 0.50905979 0.25213242 4281675083
-1.0751086 0.50933015 0.25229624 4281543756
-1.06409 0.50974917 0.25145277 4281149772
-1.0530775 0.50996971 0.25375122 4281542990
-1.023342 0.50908756 0.25898135 4280952908
-1.0025407 0.50937295 0.25303048 4280495183
-0.99388629 0.50944161 0.25415573 4280363853
-0.98723912 0.50817424 0.25310454 4281018444
-0.97498298 0.50836855 0.25403973 4281281615
-0.96559006 0.50864744 0.25463513 4281019982
-0.95556706 0.50902891 0.25526929 4280560973
-0.94651777 0.50936621 0.25372657 4281347664
-0.93780953 0.50979912 0.2528052 4281282128
-0.92239833 0.50814068 0.25544295 4281674831
-0.9159137 0.50833154 0.2553322 4281740881
-0.90497929 0.50711453 0.25505638 4280888911
-0.89511997 0.50560111 0.2548193 4280888656
-0.88490659 0.50676513 0.2547814 4280888400
-0.87449014 0.50684696 0.25549909 4280953680
-0.86395693 0.50673819 0.2553288 4281150804
-0.85414624 0.50593364 0.25420851 4281216339
-0.84457475 0.50540745 0.25490394 4281281619
-0.83484334 0.50546753 0.25554466 4281281362
-0.82456523 0.50475228 0.25437462 4281215055
-0.81489277 0.50444192 0.25490376 4281084754
-0.80463362 0.50448376 0.25508359 4280822353
-0.7950002 0.50391918 0.25511408 4281084497
-0.78507429 0.50272506 0.2554462 4281215056
-0.7757926 0.50080103 0.25381961 4281150290
-0.76587832 0.50050068 0.25558132 4281346384
-0.75207913 0.50123751 0.25936642 4281346128
-0.7325725 0.50132132 0.25642005 4281149776
-0.72756571 0.50039315 0.2552529 4281018961
-1.1128577 0.51650381 0.25497976 4284643193
-1.105077 0.51352751 0.2557199 4282996318
-1.0954192 0.51146758 0.25345328 4281611078
-1.0853773 0.51137143 0.2555289 4281544521
-1.0753682 0.51192737 0.2583667 4281216332
-1.0649059 0.51206982 0.25741231 4281346123
-1.054162 0.51234984 0.25629586 4281739084
-1.0438687 0.51099491 0.25606957 4281346125
-1.0348244 0.51204598 0.25500345 4281214795
-1.0245323 0.51246524 0.25451067 4280822092
-1.0149395 0.51159018 0.25484028 4280495182
-1.0057143 0.51167262 0.25499746 4280495182
-0.9963398 0.51198316 0.25635886 4280494668
-0.98790866 0.51098353 0.25869915 4280100938
-0.97699362 0.51044202 0.25963238 4281151314
-0.95885122 0.51109755 0.2579301 4280365390
-0.93510896 0.51194048 0.25538495 4281478480
-0.92588592 0.51093549 0.25467712 4281412687
-1.0684919 0.56919527 0.25722134 4278388765
-1.0730376 0.57580769 0.25572854 4280293688
-1.0681102 0.57241899 0.25405431 4280096562
-1.0751374 0.58519763 0.25439388 4280228924
-1.0766634 0.59446537 0.25410131 4279770941
-1.0695195 0.59588808 0.25940529 4280425789
-1.0733199 0.60416681 0.25411367 4280033088
-1.0686125 0.60837191 0.25874564 4280622657
-1.0737813 0.61448538 0.25334466 4280294721
-1.0676888 0.61523092 0.25819558 4280424510
-1.0740412 0.62542534 0.25470027 4280753218
-1.0683041 0.62364054 0.25693458 4281015876
-1.0733943 0.63468021 0.25512886 4280884800
-1.0721732 0.64549428 0.25569507 4281016128
-1.069183 0.64267069 0.25421378 4280819264
-1.0754231 0.65535063 0.25496599 4280885312
-1.0816811 0.66594124 0.25737947 4280427076
-1.0784695 0.66465896 0.25289971 4280754242
-1.0838035 0.67494714 0.25478229 4280688708
-1.0795517 0.67062473 0.25009069 4281017415
-1.0848153 0.68364149 0.2560654 4280558406
-1.084957 0.69530725 0.25520039 4280623942
-1.086148 0.70488662 0.25486246 4280230982
-1.0905926 0.71675569 0.25419107 4280623941
-1.0874096 0.71418375 0.25572777 4280492869
-1.1009979 0.77035779 0.25988099 4281411657
-1.5910054 0.2989521 0.26260573 4283983982
-1.5931493 0.30521521 0.26137614 4284377971
-1.5838337 0.30459926 0.26722297 4283722095
-1.5784707 0.30047157 0.26129296 4284115308
-1.5910912 0.31755841 0.26949331 4283918960
-1.5875242 0.31641057 0.26430237 4284116082
-1.592141 0.32639524 0.26438829 4279575350
-1.5853561 0.32628369 0.26707241 4282141786
-0.64418584 0.39709368 0.26304001 4281154124
-0.64295834 0.40548375 0.26544294 4279899443
-0.64123225 0.4144271 0.26439664 4279965236
-0.63926804 0.41858703 0.26702288 4280227894
-0.64031732 0.42099738 0.26629442 4280162358
-0.63845432 0.42527121 0.26509553 4280096822
-0.64036715 0.43375742 0.26598918 4279899444
-0.63781595 0.4348253 0.26488471 4280228151
-0.63805193 0.44444489 0.26486039 4280884794
-0.64088225 0.4570688 0.26710275 4280165701
-0.63825762 0.45394453 0.26470789 4280492096
-0.64392877 0.46593401 0.26520526 4280558917
-0.63896799 0.46134099 0.26121077 4280623684
-0.66137743 0.47854957 0.26688373 4281017929
-0.6549921 0.47481444 0.26495451 4280951879
-0.64810729 0.47087774 0.2642602 4280756039
-0.68137658 0.48868418 0.26599127 4280690505
-0.67486125 0.48628312 0.26450095 4281018186
-0.66545033 0.48229238 0.26551506 4280690506
-0.65928966 0.48074365 0.26160884 4281280844
-0.74454355 0.49985367 0.26247126 4281083983
-0.72212315 0.49915531 0.26515666 4281083727
-0.71520364 0.49800622 0.26487735 4280756044
-0.70418209 0.49604902 0.265582 4280951884
-0.69565976 0.49322277 0.26472437 4280099914
-0.68503839 0.4916459 0.26532164 4280428362
-0.67927802 0.49049449 0.2625922 4280887370
-1.0178796 0.50931913 0.26011068 4280624970
-0.9762544 0.5082826 0.26005632 4281807188
-0.95448381 0.50937384 0.26245406 4281217874
-0.92083329 0.50812769 0.2612873 4281347151
-0.91184539 0.50869912 0.2618055 4281544786
-0.90526295 0.50794834 0.26505074 4280757582
-0.89492607 0.50832021 0.26498193 4280626254
-0.88556999 0.50797164 0.26502311 4280691791
-0.87535691 0.50787443 0.26468131 4280691536
-0.86541641 0.50640088 0.26437795 4280626001
-0.85410446 0.50728625 0.26431251 4280560464
-0.84588265 0.50799453 0.26425928 4280494671
-0.83415586 0.50804979 0.2662476 4281019215
-0.8263129 0.50657368 0.26411337 4281281617
-0.81559277 0.50655437 0.26497185 4281347409
-0.80588704 0.50578302 0.26442975 4281019986
-0.79449397 0.50567216 0.26489356 4280953936
-0.78548247 0.50443727 0.26549652 4280822095
-0.77520007 0.50384235 0.26449466 4280626000
-0.76492888 0.50333041 0.26477602 4280887118
-0.75486547 0.50276774 0.26552558 4281084240
-0.74588114 0.50167143 0.2657885 4280887375
-0.73517573 0.50084633 0.26495948 4281084240
-0.72537714 0.50084966 0.26532778 4281214799
-1.1100951 0.51780599 0.26625961 4285035638
-1.102734 0.51562649 0.26496741 4283520607
-1.0950716 0.51247323 0.26418695 4281019197
-1.0853593 0.51283187 0.2655969 4281215812
-1.074613 0.51247424 0.26491964 4280953674
-1.0646634 0.51212698 0.26576278 4281150028
-1.0552813 0.51260674 0.26395878 4281673804
-1.0467931 0.51195836 0.26486403 4281214537
-1.0338417 0.51334929 0.26506692 4280624969
-1.0257003 0.51293504 0.26425534 4280429131
-1.0151694 0.51260382 0.26615226 4280101964
-1.0050862 0.51177257 0.26480374 4280429388
-0.995004 0.51227486 0.26524243 4280100936
-0.9852702 0.5120247 0.26465347 4280101451
-0.97511214 0.51173973 0.26550874 4280495180
-0.96452248 0.5114575 0.26496407 4281150541
-0.95522183 0.51180071 0.2660718 4281282639
-0.94342631 0.5125432 0.26450044 4280954445
-0.93509465 0.51167303 0.26556256 4281347405
-0.92521894 0.51045847 0.26461324 4281346892
-0.91504079 0.51075453 0.26636285 4280888653
-0.9091292 0.51080322 0.26686853 4280758095
-0.83910185 0.51144618 0.26806784 4280953165
-1.1115258 0.52013397 0.26688403 4284905079
-1.1056926 0.52040458 0.26437336 4284970103
-1.0703224 0.56918365 0.26035395 4279047722
-1.0678017 0.56816238 0.26596209 4278721067
-1.0711964 0.57583159 0.26728821 4279964722
-1.0685076 0.57385194 0.26424491 4279768368
-1.0723581 0.58466256 0.26503628 4280031802
-1.0697786 0.58033323 0.26135549 4280557375
-1.0714597 0.59395772 0.26422223 4280491069
-1.0687923 0.59621364 0.26641518 4280294204
-1.0709305 0.60339254 0.26506838 4280229182
-1.0682944 0.6051389 0.26515606 4280229439
-1.0718189 0.61704886 0.26807657 4280229953
-1.0684451 0.61417669 0.26456118 4280360770
-1.0722624 0.6242789 0.26451987 4280360513
-1.0695052 0.62434375 0.26375106 4280492099
-1.0735395 0.63542455 0.26527801 4280687935
-1.0803763 0.64849871 0.26876554 4280687934
-1.0765824 0.6452046 0.26486275 4280950335
-1.0810733 0.65627903 0.26482761 4279967807
-1.078655 0.65374386 0.26405433 4280229694
-1.0826397 0.66584241 0.26547098 4280230722
-1.0793568 0.66215026 0.2648766 4279771712
-1.0841386 0.67480481 0.2647194 4281147973
-1.0833948 0.68525887 0.26489493 4280426819
-1.0846797 0.69551873 0.26526332 4280885572
-1.0849626 0.70501703 0.26475149 4281082181
-1.0909016 0.71828854 0.26202688 4280754500
-1.0871162 0.71446979 0.26545802 4280951365
-1.0917933 0.7259202 0.26704246 4280361796
-1.0886797 0.7224884 0.26558867 4280558149
-1.1013055 0.75439954 0.26754478 4280885573
-1.098143 0.75590253 0.2662909 4280820292
-1.1008438 0.76818776 0.26131165 4281148742
-1.0969967 0.76518667 0.26571181 4281017156
-1.1018742 0.77093232 0.26518047 4281083463
-1.0956827 0.77084637 0.269566 4280952133
-1.5875399 0.29729292 0.27924934 4282802533
-1.5915377 0.30897221 0.27695641 4282933347
-1.587726 0.30388102 0.2744253 4283065449
-1.5920995 0.3139106 0.27406111 4283393383
-1.5870996 0.31515688 0.27518749 4283327589
-1.5854322 0.32501021 0.27528366 4282207575
-1.5790049 0.33078817 0.2789427 4282206808
-0.64187616 0.4056325 0.27485687 4279047726
-0.64082617 0.41450411 0.27678648 4279244592
-0.63904786 0.41610181 0.2739732 4279703089
-0.64091682 0.42154124 0.27646101 4278917938
-0.63850236 0.42556018 0.27438709 4279375921
-0.63694108 0.43505248 0.27444115 4279704373
-0.64027286 0.44898394 0.27945966 4280033086
-0.63766348 0.44468945 0.27516922 4280032312
-0.64116663 0.45650175 0.2761808 4280361281
-0.63899839 0.45313135 0.27351665 4279901756
-0.65092719 0.46933508 0.275379 4280624709
-0.64532453 0.46506113 0.27492538 4280623939
-0.6623165 0.47899628 0.27387846 4280690248
-0.65483046 0.47524348 0.27541387 4280624969
-0.64958054 0.47173786 0.27333209 4280558918
-0.68202543 0.48861334 0.27432996 4280952393
-0.67467636 0.48629254 0.27502915 4280886088
-0.66698772 0.48173368 0.27518716 4280297032
-0.75254947 0.49980298 0.2761721 4281214542
-0.7240085 0.49854341 0.27558464 4280755786
-0.71497524 0.49664444 0.27486527 4281083724
-0.70417166 0.49513394 0.27519551 4280492873
-0.69364005 0.4937104 0.27533427 4280362827
-0.68635279 0.49145555 0.27497762 4280625226
-0.89246607 0.50957131 0.27341589 4281018701
-0.88509196 0.50977015 0.2747106 4280887885
-0.87741083 0.50930822 0.27415451 4280822862
-0.86439258 0.50839025 0.27278504 4280691791
-0.85493809 0.50878847 0.27286509 4280363083
-0.84377742 0.50934148 0.27343622 4280691278
-0.83456236 0.50903624 0.27552679 4281149773
-0.82565027 0.50738013 0.27461994 4280887371
-0.81467307 0.50766426 0.27554435 4280822093
-0.80531478 0.50694674 0.27452287 4281084496
-0.79514503 0.50554323 0.2752744 4281215053
-0.78389984 0.50509173 0.27483821 4281346125
-0.77559704 0.50467616 0.27433604 4281346126
-0.76447982 0.50473797 0.27513713 4280952142
-0.75609189 0.50245267 0.27432966 4281017934
-0.74409467 0.5020498 0.27508768 4281149262
-0.73568004 0.50132698 0.27490091 4280887629
-0.72779882 0.50093508 0.27398422 4280690764
-1.104701 0.5172537 0.27555886 4283720296
-1.0952506 0.51482707 0.27429658 4281216574
-1.0849251 0.51494217 0.27586505 4281347141
-1.0756265 0.51494658 0.27467605 4281280583
-1.0648931 0.51557028 0.27592123 4281148999
-1.0563663 0.51478738 0.27443594 4280821317
-1.0458895 0.51538676 0.27482155 4280887110
-1.0350599 0.51672977 0.27537489 4280821318
-1.0253867 0.51496989 0.27554381 4280493639
-1.015686 0.51382017 0.27491418 4280297802
-1.0054207 0.51342559 0.27507776 4280429131
-0.99539512 0.51271963 0.27495143 4280887370
-0.98503977 0.5126996 0.27452391 4280755014
-0.97565621 0.51246524 0.27448213 4280494153
-0.96583354 0.5128299 0.27487135 4280822348
-0.95618099 0.51317352 0.27443314 4280822605
-0.94318813 0.51523304 0.27569699 4280625739
-0.93528074 0.51276797 0.27487701 4280560459
-0.92352808 0.51225692 0.27542064 4281019468
-0.91549575 0.51144904 0.2753385 4280954189
-0.90405554 0.51240581 0.27551639 4280888652
-0.89548808 0.51178479 0.27556938 4280756813
-0.88579112 0.51184863 0.27938443 4280691791
-0.87259072 0.51056206 0.2748735 4280953935
-0.86615855 0.51076216 0.27649897 4280954448
-0.85588664 0.51128983 0.27812052 4280822863
-0.84389359 0.51141781 0.27626655 4280887885
-0.83249754 0.51000237 0.27493489 4280756556
-1.1120245 0.52032554 0.27396417 4284249464
-1.1081076 0.52054507 0.27348745 4284380279
-1.072245 0.56796283 0.27521852 4278325283
-1.068822 0.56686133 0.27023727 4278327078
-1.0741055 0.57411617 0.27492014 4279244594
-1.0720555 0.58435982 0.27485576 4279900473
-1.0695175 0.58570266 0.27798197 4280096825
-1.0714123 0.59432876 0.27448323 4280163388
-1.0691096 0.59566396 0.27482712 4280032315
-1.0717946 0.60558665 0.27622142 4279836223
-1.0687755 0.60321552 0.27367949 4279770687
-1.0733683 0.61469579 0.27479494 4280295230
-1.0735737 0.62548953 0.27511454 4280294460
-1.0755965 0.63509655 0.27464971 4280556606
-1.076081 0.64493686 0.27534732 4280818750
-1.0818074 0.65882689 0.27165192 4280099393
-1.0772017 0.65473521 0.27449048 4280360510
-1.0819482 0.66603649 0.27290976 4280361537
-1.0777264 0.6641193 0.27698758 4280492353
-1.0816243 0.67521608 0.27525479 4280819778
-1.0790082 0.67413282 0.2761924 4280754241
-1.0832268 0.6845209 0.2752839 4280754500
-1.0793804 0.68116367 0.27134049 4280820550
-1.0903146 0.69750524 0.27724522 4280688707
-1.0870926 0.69498616 0.27424467 4280754500
-1.0900204 0.70491648 0.27627471 4280688707
-1.0870534 0.70548981 0.27526253 4280754244
-1.0920144 0.71603245 0.27631769 4280623685
-1.0883114 0.71231949 0.27289698 4280820036
-1.0953733 0.72535211 0.27477625 4280427076
-1.0971737 0.73219854 0.27463132 4280689221
-1.097505 0.75589943 0.27406362 4281212996
-1.1037947 0.76428646 0.27789676 4281017155
-1.097204 0.76458848 0.27536702 4281147971
-1.1013006 0.77188861 0.27833897 4280689475
-1.0983841 0.77190703 0.2733478 4280558403
-1.6129211 0.28478554 0.28979635 4283918437
-1.6013774 0.28947136 0.28770354 4283458915
-1.5996789 0.28948212 0.28479683 4283393379
-1.6024494 0.29260293 0.28708872 4283327331
-1.5990524 0.29262444 0.28127539 4283065189
-1.5937616 0.30377969 0.28480369 4283261541
-1.5875368 0.31585702 0.28601846 4283720805
-1.5923977 0.32513854 0.28706917 4281876041
-1.5883607 0.32154265 0.282987 4283259743
-1.5815122 0.33077228 0.2832337 4281745485
-0.64231467 0.40733635 0.28440413 4279572272
-0.64246291 0.41420746 0.28553152 4279833649
-0.63947833 0.41845009 0.28279752 4279506993
-0.64055979 0.42081347 0.28598791 4279965234
-0.63807958 0.42631927 0.28454626 4279965491
-0.63695633 0.43507785 0.28493044 4280031541
-0.64051467 0.44737256 0.28325626 4280229693
-0.63808846 0.44480613 0.28513518 4280294714
-0.64256042 0.45623448 0.28496334 4280492096
-0.63933229 0.45247549 0.2851536 4280163904
-0.65115762 0.46786174 0.28529391 4280755781
-0.64720291 0.46351498 0.28479236 4280885826
-0.66167217 0.47939703 0.28586146 4281082951
-0.65575618 0.47525096 0.28503618 4281149001
-0.68103564 0.48916107 0.28576803 4280558921
-0.67484665 0.48668203 0.28471687 4281213512
-0.66592747 0.48251843 0.28541735 4281409863
-0.72426599 0.49926233 0.2829046 4281017933
-0.71523172 0.49844542 0.28545806 4281149004
-0.70574665 0.49601877 0.28461435 4280624713
-0.6952036 0.49491853 0.28463641 4280297032
-0.68502504 0.49299389 0.28533176 4280558919
-0.67956346 0.49100173 0.28500885 4280493641
-0.88127691 0.50997281 0.28165048 4280757582
-0.85067374 0.50940561 0.28940651 4280493898
-0.84378737 0.50919569 0.28632426 4281083980
-0.83486676 0.50912577 0.28524321 4281084492
-0.82368171 0.50823224 0.28551227 4280821833
-0.81624889 0.50785142 0.28467849 4280887370
-0.80471754 0.50789148 0.28528771 4281149518
-0.7952792 0.5056718 0.28449866 4281149263
-0.78661978 0.5043574 0.28544977 4280952911
-0.77478784 0.50586003 0.28469533 4281017934
-0.76486468 0.50394547 0.2843858 4280952653
-0.75446194 0.50298727 0.28510106 4280559435
-0.74440253 0.50415522 0.28536981 4280297546
-0.73436624 0.50283647 0.28521287 4280559434
-0.72614539 0.50116038 0.28604767 4280952395
-0.71921343 0.50166047 0.28800374 4281148237
-1.1110905 0.51819938 0.28040835 4283919730
-1.1049101 0.51790202 0.2860409 4283719527
-1.094664 0.51791632 0.28449276 4281151808
-1.0854964 0.51695669 0.28554496 4281215813
-1.0758755 0.51663196 0.28479657 4280952392
-1.0652485 0.51729417 0.28542671 4280558664
-1.0542166 0.51629055 0.2847819 4280821318
-1.0448586 0.51736224 0.28498682 4281017926
-1.0347083 0.51741678 0.28605103 4281018439
-1.026045 0.5177725 0.28374782 4280821061
-1.0143557 0.51643634 0.28561887 4280623941
-1.004061 0.51410764 0.28488636 4280690248
-0.99442744 0.51357549 0.28433728 4280887115
-0.9829644 0.51423603 0.28528726 4280821064
-0.97574413 0.51340044 0.28495884 4280887370
-0.96514481 0.5128718 0.28459829 4280756298
-0.95482057 0.51383758 0.28718579 4280691532
-0.94469869 0.51597631 0.28482956 4280953420
-0.93567151 0.51572883 0.28469127 4280494411
-0.92486942 0.51414418 0.28545034 4280167500
-0.91376138 0.51313144 0.28571332 4280168013
-0.90498489 0.51215339 0.28525004 4280167244
-0.89445901 0.51169169 0.28501976 4280560462
-0.88491142 0.51195657 0.2854535 4280100681
-0.87381184 0.51211405 0.28510121 4280495437
-0.86415666 0.51221949 0.28470281 4280495436
-0.85488981 0.51142329 0.28586718 4280625996
-0.84537774 0.51153618 0.28356653 4281018701
-0.82651538 0.5102126 0.28511646 4281150284
-1.077026 0.56616759 0.28477791 4278915110
-1.074566 0.57477593 0.28537896 4279506739
-1.072667 0.58411372 0.28530496 4279966009
-1.0686209 0.58894098 0.28455597 4280359483
-1.0722468 0.59506756 0.28596175 4280228410
-1.069145 0.59293479 0.28233328 4280425276
-1.0736001 0.60450888 0.28462315 4280425533
-1.0747669 0.61546361 0.28497577 4280359740
-1.0758834 0.62473631 0.28549102 4280293693
-1.0760204 0.63439876 0.28475824 4280162881
-1.0753213 0.64501143 0.28512385 4280621885
-1.0752141 0.65475988 0.28483769 4280622141
-1.0811045 0.6653983 0.2865862 4281081664
-1.07805 0.66312009 0.28315201 4280950592
-1.0814912 0.67618799 0.28502715 4280754241
-1.0785441 0.67484462 0.28547642 4280819520
-1.0837743 0.6853689 0.28559729 4280819266
-1.0798943 0.68185908 0.28230622 4281081410
-1.0904138 0.69704932 0.28840142 4280623684
-1.0867678 0.69437385 0.28426793 4280623171
-1.0908526 0.70489293 0.2830289 4280689478
-1.087903 0.70478439 0.28544056 4280689477
-1.0912402 0.71777302 0.28426939 4280557635
-1.0875285 0.71476209 0.28514543 4280754756
-1.0931512 0.72483844 0.2848514 4281082180
-1.0953364 0.73284012 0.28568557 4281279046
-1.100598 0.75788176 0.28807127 4280689221
-1.098344 0.75666428 0.28517529 4280951108
-1.102755 0.764902 0.28627303 4280558147
-1.0988901 0.76177263 0.28212041 4280885572
-1.1053836 0.77186275 0.28532651 4280689732
-1.6146289 0.28477472 0.29271892 4284378218
-1.6058463 0.29258141 0.29290211 4284312940
-1.5978829 0.29618704 0.29776168 4284575855
-1.6004305 0.30033252 0.29887366 4284641652
-1.596176 0.30252022 0.294159 4284181359
-1.589926 0.30808163 0.29616356 4284444273
-1.5923892 0.31466225 0.29523075 4284640624
-1.5893064 0.31118965 0.29268047 4284443503
-1.5946974 0.32201988 0.29342714 4283652191
-1.5896511 0.32763204 0.29957256 4281744196
-1.5907061 0.33071408 0.29896748 4279966507
-1.5881987 0.33072996 0.29467648 4280492594
-0.64507121 0.40706435 0.29442295 4279571757
-0.6434409 0.4147878 0.29539409 4280096048
-0.64076233 0.4214218 0.2933006 4279702060
-0.63871783 0.42621699 0.29563731 4279833648
-0.63679886 0.43564489 0.29475799 4279703091
-0.63724965 0.44504547 0.29503882 4280293946
-0.64231205 0.45636794 0.2949841 4280688191
-0.63882583 0.45257133 0.2946938 4280687934
-0.64682949 0.46443656 0.29540479 4280492095
-0.66241294 0.47893655 0.29545802 4280690504
-0.65475947 0.47418952 0.29497582 4280821575
-0.64891052 0.47039261 0.29450092 4280296514
-0.68119448 0.48939967 0.2947832 4280689478
-0.67495948 0.48798934 0.2949402 4280624713
-0.66633809 0.48348475 0.29518923 4280559689
-0.65984052 0.48014462 0.29490981 4280690505
-0.72191906 0.49966827 0.2963016 4281148489
-0.71485639 0.49771178 0.29513234 4280952393
-0.70498371 0.4961448 0.2951363 4280428103
-0.6955027 0.49492478 0.29472995 4280625226
-0.6854012 0.49226898 0.29496264 4280755015
-0.85372323 0.5094173 0.29566416 4280231497
-0.84406483 0.50935644 0.29546088 4280428106
-0.83461595 0.50889736 0.29429579 4280166987
-0.82446831 0.50827098 0.29398802 4280232523
-0.8132394 0.50908881 0.29523295 4280757068
-0.80542135 0.50827724 0.29516494 4281018700
-0.79476374 0.50688773 0.29457119 4280887117
-0.78566813 0.50623071 0.29561222 4280689995
-0.77453685 0.50624448 0.29519802 4280624457
-0.76456821 0.50586247 0.29450312 4280624714
-0.75558501 0.50509417 0.29536641 4280822093
-0.74453139 0.50538707 0.29498672 4280166731
-0.73546249 0.50264841 0.29484951 4280493130
-0.72550708 0.50155449 0.29473692 4280689737
-1.112601 0.51699317 0.29455853 4284181615
-1.1057645 0.51694405 0.29497957 4282995290
-1.0944098 0.51740801 0.29569432 4280690231
-1.0862869 0.51717436 0.29416561 4281083970
-1.0747437 0.51758087 0.29470477 4280951621
-1.065158 0.51739573 0.29594514 4280492867
-1.0561166 0.51647997 0.29425469 4280624454
-1.0436736 0.51801121 0.29557005 4280624454
-1.0346529 0.51755482 0.29463726 4280689734
-1.015218 0.51641673 0.29255444 4280623683
-1.0022039 0.51893896 0.29601991 4280689477
-0.99468821 0.51813644 0.29569283 4280558662
-0.98443031 0.51682687 0.29391742 4280624456
-0.97535896 0.51710373 0.29568744 4280624969
-0.96559882 0.51631129 0.29494873 4280624455
-0.95362663 0.51741529 0.2951138 4280690762
-0.94535238 0.51641792 0.2948848 4280624712
-0.93414104 0.51685023 0.29547393 4281018442
-0.92438537 0.5155316 0.29417244 4281084493
-0.91542375 0.51432234 0.29579824 4281018957
-0.90597159 0.51271886 0.294714 4280494925
-0.89560646 0.51331776 0.29604983 4280362312
-0.8855381 0.51359451 0.29460019 4280559177
-0.87472755 0.51324904 0.29539526 4280690507
-0.86503637 0.51192802 0.29493648 4280756043
-0.85657054 0.5112555 0.29483572 4280493384
-0.83206385 0.51027322 0.29737201 4280101194
-0.82500422 0.51050836 0.29683632 4279839563
-0.81366843 0.51111078 0.29722223 4280363595
-1.0214869 0.52070397 0.29777941 4280624198
-1.0163844 0.52087235 0.29501602 4280885829
-1.0069793 0.52118105 0.29816648 4280754500
-0.95162117 0.52051926 0.29564786 4280559433
-0.94713664 0.52048373 0.29652816 4280625226
-1.0866072 0.55780613 0.29702169 4278457638
-1.0821368 0.56451362 0.2974475 4278849061
-1.0769773 0.56724715 0.29448324 4279111463
-1.080489 0.57120317 0.29738846 4279504941
-1.0758973 0.57463384 0.29460764 4279505712
-1.0730574 0.58436424 0.2951667 4279637301
-1.0728381 0.59613597 0.29517302 4279965751
-1.0734569 0.60516739 0.2944203 4280293946
-1.0748296 0.61479801 0.29485074 4280687163
-1.0754791 0.62594068 0.29555526 4280490556
-1.0743631 0.63577551 0.29516384 4280555838
-1.0809774 0.64942586 0.29883492 4280360510
-1.0766091 0.64461249 0.29467499 4280359998
-1.0816929 0.65532923 0.29544836 4280360510
-1.0788722 0.65447879 0.29366168 4280360254
-1.083055 0.66458875 0.29502282 4280819520
-1.0795273 0.66006589 0.29868785 4280425276
-1.0844566 0.67547315 0.29507473 4280623168
-1.0797108 0.67096245 0.29049706 4280556862
-1.0862111 0.68479019 0.29459408 4280950850
-1.086257 0.69432223 0.29508057 4280819780
-1.0860654 0.70479083 0.29495111 4281015617
-1.0908605 0.71964276 0.29066709 4280557889
-1.0852398 0.71524221 0.29514125 4280885826
