# .PCD v0.7 - Point Cloud Data file format
VERSION 0.7
FIELDS x y z rgba
SIZE 4 4 4 4
TYPE F F F U
COUNT 1 1 1 1
WIDTH 1084
HEIGHT 1
VIEWPOINT 0 0 0 1 0 0 0
POINTS 1084
DATA ascii
-1.0885442 0.69424391 0.3532984 4291248106
-1.0926346 0.70476246 0.35458276 4291248106
-1.0897797 0.70156229 0.3578237 4291248106
-1.0959868 0.71494943 0.35521442 4291248106
-1.0972706 0.72482717 0.35476154 4291248106
-1.1000665 0.73619658 0.3500734 4291248106
-1.0958425 0.73525268 0.355196 4291248106
-1.1006428 0.74855125 0.35263291 4291248106
-1.097015 0.74505192 0.35520464 4291248106
-1.1101809 0.7598992 0.35014021 4291248106
-1.103395 0.75587851 0.35364959 4291248106
-1.0983424 0.75352651 0.35642755 4291248106
-1.1066623 0.76460797 0.35539615 4291248106
-1.110341 0.77217287 0.35203299 4291248106
-1.1061683 0.77489388 0.35559624 4291248106
-1.1106007 0.78972036 0.35876536 4291248106
-1.1071253 0.78542674 0.35513583 4291248106
-1.1119225 0.79516119 0.35542461 4291248106
-1.1094004 0.7940895 0.35342368 4291248106
-1.114524 0.80444044 0.35468736 4291248106
-1.1204807 0.81965238 0.35379648 4291248106
-1.1170573 0.81474215 0.35487571 4291248106
-1.1210613 0.82577556 0.35383928 4291248106
-1.1181417 0.82520318 0.35631606 4291248106
-1.1224576 0.83485979 0.35549232 4291248106
-1.11953 0.83269423 0.35317779 4291248106
-1.1316655 0.84710431 0.35294896 4291248106
-1.1254597 0.84325504 0.35569406 4291248106
-1.1322827 0.85541552 0.35560307 4291248106
-1.1292752 0.85367584 0.35462099 4291248106
-1.1348963 0.86413896 0.35497633 4291248106
-0.63790685 0.4272393 0.36287722 4291248106
-0.63565671 0.43568501 0.36516222 4291248106
-0.63669109 0.44574663 0.36540866 4291248106
-0.64187402 0.45725894 0.36573559 4291248106
-0.63862449 0.45400417 0.36423722 4291248106
-0.64555657 0.46554384 0.36497775 4291248106
-0.6520853 0.47713611 0.3657344 4291248106
-0.64853764 0.47310346 0.36434218 4291248106
-0.67200327 0.48835066 0.36500305 4291248106
-0.66520596 0.48587242 0.36508343 4291248106
-0.65587819 0.48249277 0.36465111 4291248106
-0.70085448 0.49926335 0.36714888 4291248106
-0.69386739 0.49915391 0.36526397 4291248106
-0.68497294 0.4952985 0.36515266 4291248106
-0.67613387 0.49107692 0.36490738 4291248106
-0.77081418 0.50994873 0.36771762 4291248106
-0.76535386 0.50856322 0.36607304 4291248106
-0.75460702 0.50885403 0.36508006 4291248106
-0.74488395 0.50934899 0.36478391 4291248106
-0.73478049 0.50754088 0.36512938 4291248106
-0.72500062 0.50366437 0.3645176 4291248106
-0.71511477 0.50218612 0.3658233 4291248106
-0.7042619 0.50153017 0.36464253 4291248106
-0.69896489 0.50111789 0.36461607 4291248106
-1.1109654 0.51985264 0.36242747 4291248106
-1.1052427 0.51994622 0.36308855 4291248106
-1.09148 0.51841867 0.36378089 4291248106
-1.0851885 0.51859522 0.3633863 4291248106
-1.0777284 0.51883096 0.36090615 4291248106
-0.91156524 0.51979494 0.36599287 4291248106
-0.90825504 0.51991534 0.36441171 4291248106
-0.89319056 0.51851058 0.36402589 4291248106
-0.88477236 0.51891422 0.36275122 4291248106
-0.87411785 0.51911557 0.36458588 4291248106
-0.86097997 0.51992619 0.36978272 4291248106
-0.85380322 0.51824385 0.3651692 4291248106
-0.84477669 0.51619327 0.36513132 4291248106
-0.83439255 0.5161503 0.36411524 4291248106
-0.82538098 0.51636583 0.36556044 4291248106
-0.81540495 0.51599431 0.3654961 4291248106
-0.80533069 0.51567852 0.36475897 4291248106
-0.79599512 0.51476109 0.36465845 4291248106
-0.78479981 0.5141207 0.3648549 4291248106
-0.77528054 0.51208061 0.36524731 4291248106
-0.7668193 0.5105871 0.36210319 4291248106
-0.73574996 0.51002228 0.36219066 4291248106
-1.1134073 0.52347046 0.36507949 4291248106
-1.1036606 0.5217765 0.3675476 4291248106
-1.095112 0.52061254 0.36447373 4291248106
-1.084303 0.52088767 0.36728886 4291248106
-1.0755287 0.52116889 0.36605534 4291248106
-1.0642368 0.52152592 0.36489618 4291248106
-1.0550909 0.52150106 0.36550543 4291248106
-1.0450286 0.52195913 0.36501923 4291248106
-1.0364093 0.5223918 0.36515734 4291248106
-1.0245782 0.52343184 0.36419064 4291248106
-1.0152674 0.52355045 0.36521596 4291248106
-1.0050662 0.52361703 0.36540344 4291248106
-0.99452591 0.52357835 0.36528128 4291248106
-0.98452181 0.52371943 0.36550477 4291248106
-0.97504109 0.5233205 0.36412704 4291248106
-0.96545702 0.52260238 0.3654069 4291248106
-0.95663172 0.52190018 0.36455438 4291248106
-0.94406193 0.52337337 0.36432207 4291248106
-0.93620414 0.52344006 0.36513475 4291248106
-0.92538422 0.52376306 0.36511901 4291248106
-0.91509658 0.52259117 0.36518115 4291248106
-0.9047792 0.5207262 0.36488912 4291248106
-0.89647728 0.52039176 0.36493784 4291248106
-0.88629186 0.52089608 0.36822516 4291248106
-0.87487119 0.52111351 0.36581284 4291248106
-0.86449635 0.52162427 0.3660824 4291248106
-0.85757369 0.52116925 0.36290866 4291248106
-0.83075863 0.52081382 0.36996618 4291248106
-1.0826519 0.56792819 0.36952013 4291248106
-1.0798465 0.56998712 0.36738124 4291248106
-1.0829325 0.57480121 0.36490607 4291248106
-1.0784702 0.57115877 0.36410666 4291248106
-1.0818243 0.58586377 0.36619756 4291248106
-1.0787512 0.58617443 0.36417398 4291248106
-1.0801708 0.59542787 0.36514574 4291248106
-1.0778273 0.59562469 0.36448172 4291248106
-1.081409 0.60550314 0.36519071 4291248106
-1.0787632 0.60451436 0.3642287 4291248106
-1.0817025 0.61595082 0.36628848 4291248106
-1.0788521 0.61457247 0.36471653 4291248106
-1.0819995 0.62416142 0.36462623 4291248106
-1.0793691 0.62561905 0.36456767 4291248106
-1.0807407 0.63560474 0.36526951 4291248106
-1.0787942 0.6360153 0.3654263 4291248106
-1.082496 0.64498442 0.36509699 4291248106
-1.0792961 0.64173478 0.36462998 4291248106
-1.0827547 0.65429693 0.36512929 4291248106
-1.0794044 0.6578424 0.3635844 4291248106
-1.0830125 0.66578609 0.36515865 4291248106
-1.0799104 0.66111618 0.36203739 4291248106
-1.0901802 0.67830628 0.36721241 4291248106
-1.0861136 0.67519057 0.36513209 4291248106
-1.0900253 0.6884281 0.36800721 4291248106
-1.087721 0.68448794 0.36452371 4291248106
-1.0921085 0.69569415 0.36577356 4291248106
-1.0888655 0.69284469 0.36270079 4291248106
-1.0948553 0.70482248 0.36534256 4291248106
-1.0955635 0.71462005 0.36487195 4291248106
-1.1005213 0.72196114 0.36144012 4291248106
-1.0959269 0.72457278 0.36518261 4291248106
-1.0961686 0.73533446 0.36536005 4291248106
-1.0962055 0.74571311 0.36501172 4291248106
-1.1014507 0.75700915 0.36707342 4291248106
-1.0980266 0.75432199 0.36308724 4291248106
-1.1038163 0.7650305 0.36481982 4291248106
-1.106935 0.77450776 0.36505866 4291248106
-1.1109216 0.78737098 0.36321658 4291248106
-1.1072456 0.7844255 0.36567116 4291248106
-1.1113616 0.79561001 0.36466071 4291248106
-1.1087184 0.79416424 0.36481181 4291248106
-1.1137028 0.80477935 0.36495519 4291248106
-1.1093576 0.80065942 0.36777997 4291248106
-1.1210159 0.81612378 0.36808005 4291248106
-1.1178004 0.81387609 0.36413184 4291248106
-1.1229467 0.82548606 0.36524677 4291248106
-1.1190085 0.82086337 0.36105329 4291248106
-1.1262401 0.83559203 0.36469916 4291248106
-1.1313928 0.84687388 0.36508852 4291248106
-1.1283076 0.84365112 0.36538181 4291248106
-1.1320447 0.85566497 0.36495513 4291248106
-1.1285701 0.85400248 0.36530492 4291248106
-1.1406029 0.86749119 0.36415058 4291248106
-1.1358467 0.86461818 0.3647334 4291248106
-0.6358785 0.43559808 0.37386677 4291248106
-0.64113897 0.44900441 0.3741734 4291248106
-0.63643837 0.44527313 0.37523243 4291248106
-0.64173448 0.45532891 0.37433609 4291248106
-0.63949931 0.45393053 0.3781639 4291248106
-0.64478862 0.46471685 0.37486559 4291248106
-0.65219837 0.47648877 0.37297544 4291248106
-0.6476649 0.47353441 0.37681702 4291248106
-0.67110139 0.48894393 0.37218246 4291248106
-0.66347021 0.48821768 0.37504488 4291248106
-0.65577489 0.48351938 0.37565205 4291248106
-0.64919633 0.48055229 0.37662128 4291248106
-0.69286066 0.49875632 0.37562925 4291248106
-0.68451732 0.49588987 0.37487051 4291248106
-0.67558765 0.49168023 0.37499949 4291248106
-0.66740489 0.49115565 0.37802851 4291248106
-0.77197248 0.50985396 0.37303001 4291248106
-0.76800364 0.50893801 0.37171152 4291248106
-0.75529802 0.50844944 0.37357789 4291248106
-0.74499512 0.50804996 0.37532082 4291248106
-0.73591369 0.50663334 0.37445945 4291248106
-0.72483689 0.50621927 0.37464705 4291248106
-0.71537793 0.50313556 0.37528694 4291248106
-0.70431429 0.50227612 0.37513989 4291248106
-0.69571406 0.50133848 0.37480196 4291248106
-1.0606771 0.51903355 0.37173304 4291248106
-0.87642342 0.51896936 0.37172621 4291248106
-0.86290646 0.51968032 0.37418914 4291248106
-0.85657841 0.51872891 0.37332013 4291248106
-0.8451643 0.51838565 0.37470043 4291248106
-0.83291966 0.51803362 0.37703243 4291248106
-0.82518876 0.51691675 0.37450135 4291248106
-0.81419057 0.5165692 0.3752026 4291248106
-0.80490434 0.51556164 0.37536567 4291248106
-0.79454231 0.51438349 0.37504882 4291248106
-0.78461099 0.51374412 0.3741259 4291248106
-0.77545244 0.51326585 0.37526447 4291248106
-0.76560593 0.51115859 0.37719557 4291248106
-0.75712818 0.51060504 0.37673053 4291248106
-0.74947995 0.51135981 0.3787472 4291248106
-1.1220996 0.52410269 0.37872314 4291248106
-1.1141009 0.52351671 0.37352833 4291248106
-1.1045823 0.52280563 0.37658608 4291248106
-1.0953366 0.52100766 0.37395969 4291248106
-1.085021 0.52084094 0.37617707 4291248106
-1.0749898 0.52118367 0.37448964 4291248106
-1.0655631 0.5212937 0.37477624 4291248106
-1.0535727 0.52274001 0.37534302 4291248106
-1.0454378 0.5232572 0.3753494 4291248106
-1.0341135 0.52382553 0.37510109 4291248106
-1.0255589 0.5243392 0.37536833 4291248106
-1.015089 0.52400136 0.37529758 4291248106
-1.005915 0.52339387 0.37516978 4291248106
-0.99489486 0.52276117 0.37465554 4291248106
-0.98525959 0.52191907 0.37495786 4291248106
-0.97469652 0.52183658 0.37509528 4291248106
-0.96472895 0.52225226 0.37444043 4291248106
-0.95625645 0.52316147 0.37577093 4291248106
-0.94340646 0.52522498 0.37467557 4291248106
-0.93559384 0.52363652 0.37474966 4291248106
-0.92442441 0.52313161 0.37541735 4291248106
-0.91475075 0.5227353 0.37438074 4291248106
-0.90425068 0.52296603 0.37517595 4291248106
-0.89480954 0.52272666 0.37511462 4291248106
-0.88438648 0.52206862 0.37513232 4291248106
-0.87641293 0.52101868 0.37509021 4291248106
-0.86558193 0.52205873 0.37574375 4291248106
-0.8548519 0.52137631 0.37874091 4291248106
-0.84705019 0.52056015 0.37844771 4291248106
-0.83457702 0.52060854 0.37433729 4291248106
-0.82782555 0.52117407 0.37315711 4291248106
-1.0843283 0.56702 0.37455404 4291248106
-1.0798826 0.56984043 0.37828153 4291248106
-1.0830679 0.57511646 0.37310097 4291248106
-1.0772361 0.57760364 0.37862033 4291248106
-1.0812491 0.58568579 0.37605298 4291248106
-1.0785915 0.58553779 0.37509596 4291248106
-1.081134 0.59470105 0.37407345 4291248106
-1.0784683 0.59558505 0.37576309 4291248106
-1.0813509 0.60551983 0.37473223 4291248106
-1.0786225 0.60463303 0.3749153 4291248106
-1.0833676 0.615053 0.37425968 4291248106
-1.0771203 0.6123876 0.37833273 4291248106
-1.0832883 0.62450099 0.37503088 4291248106
-1.0815917 0.63501483 0.37452522 4291248106
-1.0787467 0.63616645 0.37546873 4291248106
-1.0829349 0.64527816 0.37550747 4291248106
-1.0795025 0.64247704 0.37516743 4291248106
-1.0842135 0.65467036 0.37477142 4291248106
-1.0846149 0.66508967 0.37549782 4291248106
-1.0905664 0.67965847 0.37546542 4291248106
-1.0870813 0.67492485 0.37442473 4291248106
-1.092363 0.68584454 0.37400976 4291248106
-1.0884031 0.68374306 0.37669879 4291248106
-1.0940753 0.69471908 0.37500837 4291248106
-1.095342 0.70544732 0.37538451 4291248106
-1.0959985 0.7157954 0.37505707 4291248106
-1.0960858 0.72556257 0.3750478 4291248106
-1.1003793 0.73816878 0.37919414 4291248106
-1.0977232 0.73452967 0.37499794 4291248106
-1.1011609 0.74511117 0.3754037 4291248106
-1.0984272 0.74373305 0.37412688 4291248106
-1.101908 0.75570863 0.37509656 4291248106
-1.0985721 0.75382483 0.37513784 4291248106
-1.1047813 0.76524693 0.37526718 4291248106
-1.0998856 0.76122057 0.3719396 4291248106
-1.1063846 0.77550167 0.37539756 4291248106
-1.1108444 0.78859603 0.37590355 4291248106
-1.1081152 0.78444368 0.37464863 4291248106
-1.1117437 0.79496586 0.37485653 4291248106
-1.1091331 0.79581165 0.37405342 4291248106
-1.114477 0.80574626 0.37340561 4291248106
-1.1081853 0.80445397 0.37686044 4291248106
-1.1201077 0.81960338 0.37249169 4291248106
-1.1154946 0.81513476 0.37526095 4291248106
-1.1218591 0.82490963 0.37161082 4291248106
-1.1170595 0.82510489 0.37582037 4291248106
-1.1239437 0.83546036 0.37501606 4291248106
-1.1177698 0.83072573 0.37659708 4291248106
-1.1255808 0.84510154 0.374861 4291248106
-1.1305754 0.858895 0.37232682 4291248106
-1.1271698 0.85514283 0.3752431 4291248106
-1.1339284 0.86598307 0.37486142 4291248106
-1.1288919 0.86296093 0.37494877 4291248106
-0.63453823 0.43842155 0.38373253 4291248106
-0.63692522 0.44470963 0.38499194 4291248106
-0.64091969 0.45618418 0.38466316 4291248106
-0.63912696 0.45297939 0.3850055 4291248106
-0.64316136 0.46463102 0.38523287 4291248106
-0.65153211 0.4777315 0.38708815 4291248106
-0.64711761 0.47386432 0.38482243 4291248106
-0.6638481 0.48828486 0.38521132 4291248106
-0.65463948 0.48418713 0.38493332 4291248106
-0.64946282 0.4802008 0.381639 4291248106
-0.70275748 0.49947935 0.38502601 4291248106
-0.69459212 0.49881527 0.38463864 4291248106
-0.68494219 0.49638397 0.38477048 4291248106
-0.6756286 0.49260938 0.38528132 4291248106
-0.66792703 0.49099705 0.3846609 4291248106
-0.74393219 0.5094412 0.38533437 4291248106
-0.73575377 0.50921255 0.38444993 4291248106
-0.72472048 0.50771075 0.3851372 4291248106
-0.71511835 0.50435549 0.38475668 4291248106
-0.70602256 0.50160527 0.38516679 4291248106
-0.69531333 0.50040138 0.38494554 4291248106
-1.0752733 0.51893198 0.38872632 4291248106
-1.0699705 0.51870215 0.38821527 4291248106
-0.86608839 0.5193758 0.38555306 4291248106
-0.85261518 0.51988775 0.38523641 4291248106
-0.84377861 0.51832497 0.38526335 4291248106
-0.83412874 0.51851368 0.3846119 4291248106
-0.8251462 0.51828957 0.38510132 4291248106
-0.81487226 0.51772565 0.3852725 4291248106
-0.80472487 0.51597619 0.38521832 4291248106
-0.79579443 0.51473391 0.38506162 4291248106
-0.7847544 0.51430583 0.38503256 4291248106
-0.77419943 0.51346672 0.38496569 4291248106
-0.76519328 0.51217949 0.38542145 4291248106
-0.75470757 0.51179653 0.38469481 4291248106
-0.74731803 0.51139599 0.38495633 4291248106
-0.73310769 0.51013547 0.38645628 4291248106
-0.72913289 0.51029098 0.38261509 4291248106
-1.1235046 0.52300316 0.38659212 4291248106
-1.1153823 0.52230811 0.38477045 4291248106
-1.1046363 0.52224785 0.38526255 4291248106
-1.0940779 0.5219065 0.38396719 4291248106
-1.0859265 0.52136147 0.38675955 4291248106
-1.0759666 0.52115434 0.38426402 4291248106
-1.0647887 0.52115852 0.38346878 4291248106
-1.0569748 0.52152079 0.38487419 4291248106
-1.0447251 0.52508652 0.38571459 4291248106
-1.0342624 0.5252564 0.38516796 4291248106
-1.0242873 0.52408928 0.38325599 4291248106
-1.0146892 0.52384996 0.38535696 4291248106
-1.0049285 0.52321625 0.3860229 4291248106
-0.99550974 0.52329397 0.38495862 4291248106
-0.98425835 0.52516156 0.38472766 4291248106
-0.97483355 0.52451968 0.38504553 4291248106
-0.96555328 0.52305382 0.38572085 4291248106
-0.9549244 0.52426237 0.38478452 4291248106
-0.94489956 0.52494186 0.38451621 4291248106
-0.93419969 0.52485979 0.38526985 4291248106
-0.92501724 0.52339929 0.38510078 4291248106
-0.91449022 0.52315712 0.38491276 4291248106
-0.90608406 0.52255064 0.38473943 4291248106
-0.89462894 0.52291596 0.38496849 4291248106
-0.88528079 0.52250248 0.38475513 4291248106
-0.8742981 0.52287108 0.38534555 4291248106
-0.86759198 0.52162534 0.38393444 4291248106
-0.85545963 0.52187878 0.38479343 4291248106
-0.84739977 0.52023757 0.38552037 4291248106
-1.0798794 0.56971258 0.38909894 4291248106
-1.0807065 0.57339579 0.38780832 4291248106
-1.0773323 0.57482666 0.38377669 4291248106
-1.0809292 0.58787096 0.38817564 4291248106
-1.0774599 0.58469266 0.38447511 4291248106
-1.0823684 0.59510517 0.38531733 4291248106
-1.0794005 0.5929181 0.38175666 4291248106
-1.0813917 0.60293859 0.3858394 4291248106
-1.0788333 0.60530555 0.38443971 4291248106
-1.0822464 0.61612308 0.38558698 4291248106
-1.0781524 0.61264354 0.38423705 4291248106
-1.0834029 0.62500381 0.38498744 4291248106
-1.0831692 0.63493049 0.38556904 4291248106
-1.0796257 0.63588905 0.38027543 4291248106
-1.0859497 0.64522094 0.38476619 4291248106
-1.0868688 0.65518183 0.3855744 4291248106
-1.0907075 0.66707492 0.38505739 4291248106
-1.0873907 0.66358906 0.38437575 4291248106
-1.0870367 0.67543232 0.38477513 4291248106
-1.0912833 0.68718344 0.38339016 4291248106
-1.0878086 0.68475109 0.38631049 4291248106
-1.0930849 0.69452983 0.38424256 4291248106
-1.0896236 0.69628507 0.38864818 4291248106
-1.0938046 0.70444232 0.38478583 4291248106
-1.0952284 0.71480167 0.38520861 4291248106
-1.0963819 0.72562706 0.38493803 4291248106
-1.1012309 0.73535722 0.38276991 4291248106
-1.0979557 0.73503697 0.38636357 4291248106
-1.1014301 0.74492723 0.38459289 4291248106
-1.0984681 0.74450654 0.38530937 4291248106
-1.1032324 0.75515133 0.38479745 4291248106
-1.0999109 0.7516042 0.38770816 4291248106
-1.1107136 0.76600504 0.3873035 4291248106
-1.1078268 0.7646516 0.38421896 4291248106
-1.1105404 0.77699488 0.38742146 4291248106
-1.1075984 0.77498257 0.3849684 4291248106
-1.1104395 0.78731108 0.38494754 4291248106
-1.1073231 0.7847805 0.38521385 4291248106
-1.1111891 0.79522896 0.38574106 4291248106
-1.1087563 0.79522866 0.38363662 4291248106
-1.1119082 0.80566269 0.38668662 4291248106
-1.1085765 0.80479455 0.38265494 4291248106
-1.1144571 0.81551027 0.38497064 4291248106
-1.1212198 0.82720727 0.38809833 4291248106
-1.1176038 0.82432503 0.38392165 4291248106
-1.1233169 0.83478433 0.38535431 4291248106
-1.1192632 0.83097214 0.38188395 4291248106
-1.1309898 0.84902948 0.38896018 4291248106
-1.1268736 0.84469897 0.38462743 4291248106
-1.1317078 0.8558256 0.38516727 4291248106
-1.1290765 0.85458279 0.38435414 4291248106
-1.1407043 0.86922759 0.38234848 4291248106
-1.1348413 0.86484724 0.38506085 4291248106
-1.138496 0.8700797 0.3864406 4291248106
-0.63747984 0.44497088 0.39463076 4291248106
-0.64031017 0.45634598 0.39409351 4291248106
-0.63813442 0.45573094 0.39519364 4291248106
-0.64321238 0.46527094 0.39512134 4291248106
-0.63942975 0.46115246 0.39256179 4291248106
-0.65249723 0.47889975 0.39250436 4291248106
-0.64664412 0.47518641 0.39526859 4291248106
-0.67078847 0.48930389 0.39497033 4291248106
-0.66430575 0.48811153 0.39517891 4291248106
-0.65537143 0.48383719 0.39505988 4291248106
-0.64835948 0.48127949 0.39822111 4291248106
-0.7030772 0.49956453 0.39011914 4291248106
-0.6929003 0.49895078 0.39519045 4291248106
-0.68537349 0.49573258 0.3948054 4291248106
-0.67509484 0.49254161 0.39528012 4291248106
-0.6659255 0.49117762 0.39458498 4291248106
-0.76501775 0.5085426 0.39725649 4291248106
-0.75187457 0.50943285 0.39723575 4291248106
-0.74438137 0.50951785 0.39526132 4291248106
-0.73514926 0.50860971 0.39508998 4291248106
-0.72502077 0.50640482 0.39505294 4291248106
-0.71567172 0.5048328 0.39487621 4291248106
-0.70568413 0.50417638 0.39489603 4291248106
-0.69595075 0.50238597 0.39542067 4291248106
-1.0805171 0.51874495 0.39802644 4291248106
-1.0752296 0.51867169 0.39420748 4291248106
-0.87115276 0.5191952 0.39453483 4291248106
-0.86454743 0.51963246 0.39447111 4291248106
-0.85495526 0.51905441 0.39530754 4291248106
-0.84579247 0.51851374 0.39221755 4291248106
-0.83572394 0.51882821 0.39452195 4291248106
-0.82299364 0.51890051 0.39622802 4291248106
-0.81551969 0.51824135 0.3947373 4291248106
-0.80442393 0.51673096 0.3950502 4291248106
-0.79461175 0.51443458 0.39523336 4291248106
-0.78520507 0.51406986 0.39462614 4291248106
-0.77488261 0.51345515 0.39528674 4291248106
-0.76701039 0.51131415 0.39400959 4291248106
-0.75408816 0.51116484 0.39436996 4291248106
-0.74921405 0.51131964 0.39118639 4291248106
-0.734631 0.51009488 0.39236629 4291248106
-1.1234112 0.52450663 0.39144272 4291248106
-1.1144054 0.52518314 0.3942109 4291248106
-1.106528 0.52399772 0.39583012 4291248106
-1.0940586 0.52210289 0.39451569 4291248106
-1.085104 0.52105075 0.39574498 4291248106
-1.0783386 0.52107477 0.39249021 4291248106
-1.0627382 0.52131528 0.39509568 4291248106
-1.0510802 0.52473682 0.39650509 4291248106
-1.0439727 0.52500641 0.39518812 4291248106
-1.0356711 0.52517551 0.39514944 4291248106
-1.0241264 0.52656186 0.3949064 4291248106
-1.0155208 0.52467424 0.39486271 4291248106
-1.0068266 0.52360922 0.39441112 4291248106
-0.99690771 0.52425796 0.39505321 4291248106
-0.98411804 0.5259524 0.39638755 4291248106
-0.97531253 0.5258373 0.39420152 4291248106
-0.9654699 0.52572089 0.39497265 4291248106
-0.95483649 0.52560174 0.39568469 4291248106
-0.94581038 0.52466732 0.39430884 4291248106
-0.93476653 0.52432519 0.39523968 4291248106
-0.9256891 0.52351934 0.39450389 4291248106
-0.9142195 0.52312487 0.3950488 4291248106
-0.9054302 0.52235466 0.39472583 4291248106
-0.89536583 0.52224439 0.39466286 4291248106
-0.88372338 0.52371466 0.39566827 4291248106
-0.87556911 0.52279365 0.39472219 4291248106
-0.86632401 0.52190965 0.39695671 4291248106
-0.85342544 0.52050513 0.3926304 4291248106
-0.84391481 0.52047247 0.3974956 4291248106
-0.83536881 0.5207231 0.39596796 4291248106
-0.82598644 0.52088451 0.39447621 4291248106
-1.110965 0.53139758 0.39891112 4291248106
-1.084131 0.56846094 0.39611501 4291248106
-1.0830956 0.5747484 0.39455387 4291248106
-1.0815117 0.58553785 0.394227 4291248106
-1.0786363 0.58565646 0.39654261 4291248106
-1.0824875 0.59509552 0.39545614 4291248106
-1.0793202 0.59273636 0.39247936 4291248106
-1.0831181 0.60431355 0.39503345 4291248106
-1.0799146 0.6086638 0.39027143 4291248106
-1.0834826 0.61607945 0.39541471 4291248106
-1.0785612 0.61595666 0.39321876 4291248106
-1.0832314 0.62552714 0.39534324 4291248106
-1.0860128 0.63457662 0.39464781 4291248106
-1.0903561 0.64410353 0.39506698 4291248106
-1.0881501 0.64451045 0.39520198 4291248106
-1.0854429 0.65540045 0.39525846 4291248106
-1.0827515 0.66550374 0.39521143 4291248106
-1.0847586 0.67470652 0.39474431 4291248106
-1.0905108 0.6876862 0.39944535 4291248106
-1.0869665 0.68460548 0.39513275 4291248106
-1.0914536 0.69555652 0.39524728 4291248106
-1.088515 0.69452798 0.39409581 4291248106
-1.0929465 0.7054469 0.39480162 4291248106
-1.0894749 0.7023443 0.39747748 4291248106
-1.09348 0.71519125 0.39536273 4291248106
-1.0940821 0.72485214 0.39483851 4291248106
-1.101088 0.73716003 0.39477026 4291248106
-1.0959893 0.73374689 0.39507276 4291248106
-1.1011921 0.74604255 0.39300421 4291248106
-1.097829 0.74454516 0.39544386 4291248106
-1.1021795 0.75611687 0.39457807 4291248106
-1.098672 0.75466371 0.39556009 4291248106
-1.1043028 0.7655043 0.3948665 4291248106
-1.0990222 0.76063412 0.39875987 4291248106
-1.1124125 0.77585435 0.39153901 4291248106
-1.1064895 0.77521515 0.39556172 4291248106
-1.1121703 0.78503555 0.39490622 4291248106
-1.108628 0.78241396 0.39292964 4291248106
-1.1122053 0.79454368 0.39532059 4291248106
-1.1097775 0.79699975 0.39483339 4291248106
-1.1147425 0.80504012 0.3949616 4291248106
-1.1169276 0.81489652 0.39505559 4291248106
-1.1218425 0.8262974 0.39532366 4291248106
-1.1180947 0.82339889 0.39481577 4291248106
-1.13027 0.83839619 0.39559981 4291248106
-1.1259488 0.83462983 0.3949672 4291248106
-1.1311839 0.84708208 0.39464685 4291248106
-1.1286367 0.84400284 0.39532569 4291248106
-1.13254 0.85514116 0.39525995 4291248106
-1.1296285 0.85417068 0.39134625 4291248106
-1.1400068 0.86789405 0.39070299 4291248106
-1.1361978 0.86438346 0.39523816 4291248106
-1.1406869 0.87038827 0.39433002 4291248106
-1.1384726 0.8708539 0.39440694 4291248106
-0.63786423 0.44704035 0.40453377 4291248106
-0.64098227 0.45744228 0.40603986 4291248106
-0.63858145 0.45478952 0.40407318 4291248106
-0.64188838 0.4658851 0.4050003 4291248106
-0.63955426 0.4626576 0.40739596 4291248106
-0.65077525 0.47839803 0.40887281 4291248106
-0.64527261 0.47530538 0.40488201 4291248106
-0.6639123 0.48775437 0.40464479 4291248106
-0.65507615 0.48454347 0.40550181 4291248106
-0.64870793 0.4819943 0.4025903 4291248106
-0.69342887 0.4985981 0.40218049 4291248106
-0.68367302 0.49722335 0.40508518 4291248106
-0.67510623 0.49358702 0.4048399 4291248106
-0.66701269 0.49163958 0.4055475 4291248106
-0.76537532 0.50843686 0.40010524 4291248106
-0.75589752 0.50929654 0.40114665 4291248106
-0.74340433 0.50937229 0.40322378 4291248106
-0.73571813 0.50869954 0.40366969 4291248106
-0.72517699 0.50703722 0.40478775 4291248106
-0.71367246 0.50703824 0.40549263 4291248106
-0.7047317 0.50490022 0.40524316 4291248106
-0.69617969 0.50153637 0.40518028 4291248106
-0.68774199 0.50058717 0.40691128 4291248106
-1.0816823 0.5187034 0.40009311 4291248106
-1.0763773 0.51848739 0.40224975 4291248106
-0.83403003 0.51886141 0.40407127 4291248106
-0.82393867 0.51915127 0.40148354 4291248106
-0.81327349 0.51921904 0.40425694 4291248106
-0.80525362 0.51788509 0.40496868 4291248106
-0.79489613 0.51678711 0.40529624 4291248106
-0.7852118 0.51492023 0.40503252 4291248106
-0.77539515 0.5134449 0.40423593 4291248106
-0.76516169 0.51253808 0.40538821 4291248106
-0.75592369 0.51203227 0.40581205 4291248106
-0.74566537 0.51193249 0.40598768 4291248106
-0.73507577 0.51056772 0.40638119 4291248106
-0.72930062 0.5104993 0.40850091 4291248106
-1.1131413 0.52512902 0.40506977 4291248106
-1.1062332 0.52271366 0.40475661 4291248106
-1.0943924 0.52245468 0.40449271 4291248106
-1.0848769 0.52071798 0.40509742 4291248106
-1.0763204 0.52076137 0.406362 4291248106
-1.0663855 0.5217827 0.40648472 4291248106
-1.0534852 0.52507234 0.40446264 4291248106
-1.0452898 0.5249607 0.40481806 4291248106
-1.0348916 0.52569896 0.40595067 4291248106
-1.0253055 0.5250172 0.40497282 4291248106
-1.016759 0.52379805 0.40538132 4291248106
-1.004335 0.52416348 0.40408084 4291248106
-0.99528992 0.52414685 0.40577292 4291248106
-0.98536056 0.5247491 0.4046967 4291248106
-0.97680628 0.52432758 0.40499517 4291248106
-0.96438694 0.52667689 0.40548286 4291248106
-0.95531881 0.52515399 0.40513167 4291248106
-0.94518441 0.52478158 0.40471679 4291248106
-0.935296 0.52506113 0.40510073 4291248106
-0.9255386 0.52508271 0.40430292 4291248106
-0.91558367 0.5240494 0.40532812 4291248106
-0.90512908 0.5240705 0.40478483 4291248106
-0.89712977 0.5231961 0.40509206 4291248106
-0.8845017 0.52383816 0.40519443 4291248106
-0.87531817 0.52229786 0.404129 4291248106
-0.86508137 0.52211165 0.40536362 4291248106
-0.85532534 0.5217672 0.40474993 4291248106
-0.84510601 0.52104539 0.40534952 4291248106
-0.83651185 0.52074009 0.40501493 4291248106
-0.82432741 0.5210312 0.40648836 4291248106
-0.81596637 0.52145469 0.40694344 4291248106
-0.80664361 0.52003324 0.40994984 4291248106
-1.11274 0.53133428 0.40205917 4291248106
-1.0865777 0.56811494 0.40413332 4291248106
-1.0853738 0.57483691 0.40502426 4291248106
-1.083586 0.58412498 0.40586758 4291248106
-1.0785756 0.58888221 0.40262341 4291248106
-1.0819881 0.59506184 0.40416068 4291248106
-1.0789809 0.59509486 0.40542239 4291248106
-1.0824459 0.60561675 0.4055391 4291248106
-1.0793654 0.6026144 0.40453282 4291248106
-1.0831348 0.61481553 0.40478709 4291248106
-1.0841552 0.62521541 0.40480033 4291248106
-1.0866646 0.63435799 0.4051151 4291248106
-1.0908237 0.64574194 0.40110373 4291248106
-1.086383 0.64433414 0.40571555 4291248106
-1.0848285 0.65459621 0.4050059 4291248106
-1.0840567 0.6650219 0.40509918 4291248106
-1.0845739 0.67562044 0.40534875 4291248106
-1.0904802 0.68830448 0.40966067 4291248106
-1.0868338 0.68477231 0.40472168 4291248106
-1.091725 0.69549286 0.40649679 4291248106
-1.0885293 0.69332933 0.4025209 4291248106
-1.0924031 0.70549911 0.40493128 4291248106
-1.0893531 0.70258862 0.40566567 4291248106
-1.0923251 0.71534252 0.4056769 4291248106
-1.0890802 0.71622193 0.40579215 4291248106
-1.0909319 0.72823507 0.40868774 4291248106
-1.0880232 0.72519147 0.40435189 4291248106
-1.1005626 0.73654854 0.40002811 4291248106
-1.0942814 0.73510307 0.40557688 4291248106
-1.0890815 0.73220944 0.40250367 4291248106
-1.1003547 0.74020177 0.4076798 4291248106
-1.0976573 0.74518818 0.40511605 4291248106
-1.1016811 0.75536633 0.40665737 4291248106
-1.0984919 0.75361812 0.40304422 4291248106
-1.1024472 0.76435637 0.40471017 4291248106
-1.111401 0.77852613 0.40709844 4291248106
-1.1058797 0.77403927 0.40471819 4291248106
-1.1134301 0.78565365 0.40496004 4291248106
-1.1096338 0.7826395 0.40095618 4291248106
-1.1131514 0.79574925 0.40516776 4291248106
-1.1151255 0.80540091 0.40502757 4291248106
-1.120043 0.81839055 0.40117279 4291248106
-1.1169348 0.81526208 0.40538064 4291248106
-1.1253512 0.82578683 0.40566871 4291248106
-1.1177065 0.82389069 0.40373412 4291248106
-1.1307753 0.83854777 0.40495238 4291248106
-1.1271776 0.83424067 0.40493062 4291248106
-1.1316314 0.84482819 0.40373421 4291248106
-1.1285352 0.84456658 0.40632156 4291248106
-1.1331464 0.85537493 0.40537557 4291248106
-1.1291741 0.85169649 0.4031181 4291248106
-1.141708 0.86675447 0.40310407 4291248106
-1.1364851 0.86435211 0.40573451 4291248106
-1.142301 0.87095904 0.40369922 4291248106
-1.1394975 0.87178403 0.40623486 4291248106
-0.6400246 0.44977209 0.41135067 4291248106
-0.6384331 0.44790348 0.41271657 4291248106
-0.6402325 0.45684984 0.41289413 4291248106
-0.63805759 0.45475996 0.41501728 4291248106
-0.64090019 0.46483585 0.41413754 4291248106
-0.63789713 0.46428168 0.41673315 4291248106
-0.64428484 0.47548416 0.41498533 4291248106
-0.63921607 0.47109067 0.41127047 4291248106
-0.66310793 0.48898268 0.41129306 4291248106
-0.65464795 0.4855507 0.4150565 4291248106
-0.64787072 0.48191562 0.41572869 4291248106
-0.68467033 0.49786621 0.41510245 4291248106
-0.67437685 0.49612984 0.41476542 4291248106
-0.66539294 0.49270767 0.41573682 4291248106
-0.65873533 0.49066159 0.41581726 4291248106
-0.74217391 0.50990009 0.41695344 4291248106
-0.73318297 0.50843376 0.41506225 4291248106
-0.72474569 0.50854683 0.41486719 4291248106
-0.71517682 0.50678122 0.41536868 4291248106
-0.70518541 0.50396162 0.41467506 4291248106
-0.69413835 0.50232917 0.41536185 4291248106
-0.68841517 0.50060886 0.41415057 4291248106
-1.1102998 0.51994759 0.41698071 4291248106
-1.1091211 0.51998961 0.41489005 4291248106
-0.86345834 0.51961309 0.41511205 4291248106
-0.85642499 0.51981789 0.41268525 4291248106
-0.8373363 0.51845539 0.41968489 4291248106
-0.82342607 0.51911741 0.41491738 4291248106
-0.81514901 0.5193575 0.41619205 4291248106
-0.80464578 0.51884884 0.41513133 4291248106
-0.7957288 0.51676905 0.41435286 4291248106
-0.78513587 0.51530915 0.41489476 4291248106
-0.77531588 0.51473898 0.4153969 4291248106
-0.76462227 0.51476663 0.41525251 4291248106
-0.75491333 0.51323497 0.415353 4291248106
-0.74560797 0.51194382 0.41467601 4291248106
-0.73611361 0.51069647 0.41428 4291248106
-1.1238618 0.52185512 0.41780102 4291248106
-1.1153932 0.52273852 0.4146108 4291248106
-1.104793 0.52217263 0.41428995 4291248106
-1.096344 0.52177674 0.41484267 4291248106
-1.0835994 0.52390587 0.41513443 4291248106
-1.0752932 0.52332139 0.41554004 4291248106
-1.0662044 0.52397609 0.41473129 4291248106
-1.0547533 0.52561879 0.41490242 4291248106
-1.04495 0.52604127 0.41522297 4291248106
-1.0351663 0.52651441 0.41554004 4291248106
-1.0249281 0.52609223 0.41435722 4291248106
-1.0143409 0.52578568 0.41528514 4291248106
-1.0040952 0.52590793 0.41332224 4291248106
-0.99384898 0.52826941 0.41548175 4291248106
-0.98457897 0.52703965 0.41472414 4291248106
-0.97594857 0.52693981 0.41630787 4291248106
-0.96482497 0.5263322 0.41502717 4291248106
-0.95558095 0.525024 0.41481951 4291248106
-0.94563621 0.52488703 0.4152976 4291248106
-0.93430007 0.52544874 0.41477659 4291248106
-0.92507559 0.5249666 0.41546404 4291248106
-0.91517377 0.52531856 0.41500872 4291248106
-0.90445358 0.5242542 0.41462561 4291248106
-0.89501852 0.52244717 0.41489366 4291248106
-0.88569641 0.52290016 0.41537613 4291248106
-0.87438279 0.52328891 0.41516066 4291248106
-0.86667192 0.52193761 0.41485193 4291248106
-0.85438401 0.52141547 0.41591069 4291248106
-0.84526747 0.52055693 0.41481546 4291248106
-0.83536762 0.52056366 0.41467988 4291248106
-0.8254016 0.52101868 0.41552618 4291248106
-0.81800812 0.52132267 0.41253996 4291248106
-0.80868626 0.52181327 0.41219634 4291248106
-1.0872996 0.56933749 0.41306937 4291248106
-1.0904697 0.57366228 0.41539565 4291248106
-1.0870335 0.57488823 0.41563398 4291248106
-1.0855355 0.58443761 0.41474581 4291248106
-1.0829034 0.59591156 0.41518098 4291248106
-1.0828402 0.60640913 0.41508007 4291248106
-1.0832638 0.61483681 0.41468027 4291248106
-1.0823315 0.62528676 0.41433293 4291248106
-1.0794017 0.62487775 0.41810068 4291248106
-1.0841365 0.6351884 0.41538963 4291248106
-1.0831461 0.64477015 0.41491735 4291248106
-1.0789433 0.64993572 0.41800058 4291248106
-1.0835149 0.65494716 0.41470504 4291248106
-1.0796461 0.65206516 0.41764709 4291248106
-1.0845819 0.66523987 0.41551015 4291248106
-1.0911195 0.67794037 0.418475 4291248106
-1.0872784 0.67484564 0.4140625 4291248106
-1.0922854 0.68561226 0.41582361 4291248106
-1.0891774 0.68350351 0.41095033 4291248106
-1.0923561 0.6942535 0.41457805 4291248106
-1.0891324 0.69798201 0.41585347 4291248106
-1.0920827 0.70418763 0.41595197 4291248106
-1.089365 0.70690811 0.41320673 4291248106
-1.0919458 0.7144075 0.41517493 4291248106
-1.0895495 0.71364039 0.414251 4291248106
-1.0932367 0.72487795 0.41520745 4291248106
-1.0894649 0.72153676 0.41109958 4291248106
-1.1010276 0.73853403 0.41867676 4291248106
-1.0970123 0.73484617 0.41440043 4291248106
-1.1015879 0.74600875 0.4147172 4291248106
-1.0989033 0.74557322 0.41488719 4291248106
-1.1044317 0.75529796 0.41544336 4291248106
-1.1058177 0.76528734 0.41540101 4291248106
-1.1109354 0.77664387 0.41626531 4291248106
-1.1075535 0.77463472 0.41423294 4291248106
-1.1129293 0.78507626 0.41450819 4291248106
-1.1092962 0.78212672 0.41648194 4291248106
-1.1160775 0.79444748 0.41495273 4291248106
-1.1136066 0.80512983 0.41456997 4291248106
-1.1093814 0.80608445 0.41957909 4291248106
-1.1200486 0.81957495 0.41103104 4291248106
-1.1146086 0.81494498 0.41533625 4291248106
-1.1235594 0.82576412 0.41490859 4291248106
-1.1183313 0.82142752 0.41523772 4291248106
-1.1266615 0.83494043 0.41485074 4291248106
-1.1317279 0.84527826 0.41357225 4291248106
-1.1280023 0.84390086 0.41622332 4291248106
-1.1329216 0.85570896 0.41465458 4291248106
-1.128863 0.85274124 0.41681805 4291248106
-1.1356027 0.86430138 0.41489097 4291248106
-1.1404966 0.87252176 0.41601521 4291248106
-1.1379356 0.87179118 0.4146584 4291248106
-0.63742894 0.4565779 0.42484826 4291248106
-0.64139587 0.46650851 0.4261446 4291248106
-0.63873285 0.46309206 0.42370671 4291248106
-0.64457822 0.4750028 0.42490128 4291248106
-0.66161919 0.48903251 0.42778695 4291248106
-0.65443981 0.48664865 0.42488211 4291248106
-0.64843029 0.48230064 0.42488363 4291248106
-0.69028324 0.4987534 0.42201072 4291248106
-0.68507206 0.49869448 0.42334825 4291248106
-0.67453766 0.49769598 0.42454013 4291248106
-0.6658715 0.49309614 0.42504609 4291248106
-0.65924871 0.49087304 0.42084837 4291248106
-0.73231614 0.50882214 0.42788863 4291248106
-0.72405738 0.50904304 0.42481479 4291248106
-0.71484035 0.50667959 0.42531961 4291248106
-0.70486408 0.5046314 0.425661 4291248106
-0.69463128 0.50287682 0.42461327 4291248106
-0.68673742 0.5015794 0.42678592 4291248106
-0.67591184 0.50108165 0.42896774 4291248106
-0.84586614 0.51863664 0.42157859 4291248106
-0.83880281 0.51840305 0.42228585 4291248106
-0.82119828 0.51856321 0.42574129 4291248106
-0.81512874 0.51779294 0.42453048 4291248106
-0.80516917 0.5172022 0.42497268 4291248106
-0.79414427 0.51731193 0.42509505 4291248106
-0.78530139 0.51564729 0.42506653 4291248106
-0.77454162 0.51568574 0.42521882 4291248106
-0.76530832 0.51439399 0.42492029 4291248106
-0.75555074 0.51232046 0.42494389 4291248106
-0.74451941 0.51144958 0.42537159 4291248106
-0.73505658 0.51072794 0.42482394 4291248106
-0.72764057 0.510809 0.42339411 4291248106
-1.1248541 0.52179366 0.4238717 4291248106
-1.1151266 0.52367103 0.42571312 4291248106
-1.1049033 0.52435637 0.42573497 4291248106
-1.0959579 0.52442861 0.42364201 4291248106
-1.0856171 0.5253318 0.42525625 4291248106
-1.076139 0.52413374 0.42519209 4291248106
-1.0643836 0.52430928 0.42483196 4291248106
-1.0544133 0.52452439 0.42465732 4291248106
-1.0449611 0.52539408 0.4260937 4291248106
-1.035495 0.52668476 0.4245106 4291248106
-1.025578 0.52720702 0.42497566 4291248106
-1.0156971 0.52719361 0.42577687 4291248106
-1.0038097 0.52791303 0.42537025 4291248106
-0.99490494 0.52761686 0.42507303 4291248106
-0.98591781 0.52608621 0.42371321 4291248106
-0.97307593 0.52813321 0.42578018 4291248106
-0.9655953 0.52741593 0.42468727 4291248106
-0.95439541 0.52698141 0.4247537 4291248106
-0.94555867 0.52497971 0.42520839 4291248106
-0.93475974 0.52507073 0.42522308 4291248106
-0.92425245 0.5255093 0.42539608 4291248106
-0.91463363 0.52464968 0.4248755 4291248106
-0.90672547 0.52321184 0.42437524 4291248106
-0.89488524 0.52506542 0.42535326 4291248106
-0.88486749 0.52474844 0.42563555 4291248106
-0.8749764 0.52427167 0.42498016 4291248106
-0.86496902 0.52275932 0.42456922 4291248106
-0.85436392 0.5225668 0.42504954 4291248106
-0.84581572 0.52089673 0.42584661 4291248106
-0.83696932 0.52053475 0.42429397 4291248106
-0.82527679 0.52190727 0.42537645 4291248106
-0.96230388 0.53032762 0.42964807 4291248106
-1.0918932 0.56579864 0.4290868 4291248106
-1.0876144 0.56828582 0.42512846 4291248106
-1.0903459 0.57355613 0.42598629 4291248106
-1.0881422 0.57546526 0.42475745 4291248106
-1.0856167 0.58537424 0.4249053 4291248106
-1.084496 0.59524423 0.42540663 4291248106
-1.0832262 0.60502982 0.42410097 4291248106
-1.0791245 0.60969669 0.42889109 4291248106
-1.0823566 0.6144805 0.42562094 4291248106
-1.0788156 0.61621815 0.42350796 4291248106
-1.0814693 0.62515914 0.42518228 4291248106
-1.0791347 0.62413937 0.4243128 4291248106
-1.0824496 0.63487613 0.42470193 4291248106
-1.0795726 0.63562661 0.42615101 4291248106
-1.0836189 0.64528179 0.42523661 4291248106
-1.0851595 0.65510017 0.42502528 4291248106
-1.0910541 0.66612393 0.42713633 4291248106
-1.0879812 0.66389155 0.42393064 4291248106
-1.0905281 0.67250347 0.42147943 4291248106
-1.0879977 0.6754728 0.42558163 4291248106
-1.0904154 0.68537086 0.42030871 4291248106
-1.0868722 0.68469942 0.42511949 4291248106
-1.0912151 0.69668293 0.4240329 4291248106
-1.0880444 0.69417733 0.42559916 4291248106
-1.0918789 0.70666134 0.42636448 4291248106
-1.088742 0.70370877 0.4230769 4291248106
-1.0944588 0.71497321 0.42510745 4291248106
-1.1012752 0.72857684 0.42650402 4291248106
-1.0965825 0.72473717 0.42473349 4291248106
-1.1007053 0.73533505 0.42478052 4291248106
-1.0986094 0.73448819 0.42460895 4291248106
-1.1022582 0.74528092 0.42439824 4291248106
-1.0990676 0.74349868 0.42627797 4291248106
-1.1046324 0.75472337 0.42445928 4291248106
-1.099034 0.75694346 0.42941472 4291248106
-1.1105047 0.76702672 0.42265549 4291248106
-1.1062067 0.76433682 0.42583951 4291248106
-1.1062121 0.77521956 0.42487133 4291248106
-1.1112416 0.78708857 0.42263231 4291248106
-1.1075473 0.78430921 0.42547864 4291248106
-1.111686 0.79564691 0.42391878 4291248106
-1.1090093 0.79371977 0.42715821 4291248106
-1.111473 0.80480707 0.4241817 4291248106
-1.108956 0.80530798 0.42676899 4291248106
-1.1203656 0.8193568 0.42891189 4291248106
-1.1142633 0.81525487 0.42525849 4291248106
-1.1096137 0.81126654 0.42471886 4291248106
-1.121991 0.82672656 0.42627853 4291248106
-1.1185827 0.82362473 0.42262763 4291248106
-1.1234254 0.83516479 0.424858 4291248106
-1.1268127 0.84470105 0.42478588 4291248106
-1.1326493 0.85585678 0.42326471 4291248106
-1.1275129 0.85406631 0.42682591 4291248106
-1.1190541 0.85265887 0.42978126 4291248106
-1.1359704 0.86502928 0.42339054 4291248106
-1.1283507 0.86503583 0.42824847 4291248106
-1.1403722 0.87329954 0.42380247 4291248106
-1.135447 0.87288493 0.4258441 4291248106
-1.1299878 0.87123692 0.42650339 4291248106
-0.64052099 0.45869088 0.43509644 4291248106
-0.63896883 0.45746806 0.43436578 4291248106
-0.64189553 0.46511945 0.43503764 4291248106
-0.63958091 0.46151552 0.43403843 4291248106
-0.64517611 0.47481436 0.43498355 4291248106
-0.65330976 0.48801678 0.4347901 4291248106
-0.64830106 0.48327139 0.43542004 4291248106
-0.68064308 0.49958831 0.43673337 4291248106
-0.67415923 0.49806076 0.43572602 4291248106
-0.66553205 0.49367645 0.43445233 4291248106
-0.65752727 0.49156716 0.43515065 4291248106
-0.73324186 0.5088799 0.4349803 4291248106
-0.72400874 0.5091067 0.43436787 4291248106
-0.71500736 0.50747502 0.43512544 4291248106
-0.70591468 0.50533384 0.43526486 4291248106
-0.69423538 0.50548065 0.43472973 4291248106
-0.68556768 0.5022012 0.43509063 4291248106
-0.67719042 0.50099522 0.4322311 4291248106
-0.82287276 0.51843703 0.43348056 4291248106
-0.81482476 0.51817185 0.43463689 4291248106
-0.80468309 0.51807588 0.43450621 4291248106
-0.79516703 0.5176214 0.43509141 4291248106
-0.78468502 0.51669711 0.43439507 4291248106
-0.77428859 0.51627517 0.43540859 4291248106
-0.76448071 0.51492935 0.4347941 4291248106
-0.755225 0.51320201 0.4352327 4291248106
-0.74517536 0.51227063 0.43491936 4291248106
-0.73639315 0.51111686 0.4347375 4291248106
-0.72678298 0.51084906 0.43817279 4291248106
-1.1200382 0.52415669 0.43086791 4291248106
-1.1137267 0.52684128 0.43572819 4291248106
-1.105141 0.52515805 0.43589288 4291248106
-1.0933193 0.52631307 0.43408245 4291248106
-1.0845052 0.52622616 0.43525341 4291248106
-1.0750568 0.52582806 0.43429255 4291248106
-1.064202 0.52624291 0.43511781 4291248106
-1.0553997 0.52605778 0.43525466 4291248106
-1.0444102 0.52825844 0.43485576 4291248106
-1.0341675 0.52775913 0.43513364 4291248106
-1.0243152 0.52699882 0.43553552 4291248106
-1.0164191 0.52609915 0.43435267 4291248106
-1.0060164 0.52637583 0.43446663 4291248106
-0.99602342 0.52690446 0.43433827 4291248106
-0.98438454 0.52888882 0.43582073 4291248106
-0.97375578 0.52826238 0.43616939 4291248106
-0.96490949 0.52817875 0.43702218 4291248106
-0.95526963 0.52803099 0.43365493 4291248106
-0.94371641 0.52748466 0.43563592 4291248106
-0.93545777 0.52493888 0.43448919 4291248106
-0.92482436 0.52426738 0.43577021 4291248106
-0.91565484 0.52400088 0.43466899 4291248106
-0.90382701 0.52507764 0.43509096 4291248106
-0.89522904 0.5249266 0.43475446 4291248106
-0.88489133 0.52472842 0.43481085 4291248106
-0.87557346 0.52302665 0.43535167 4291248106
-0.86517918 0.5230757 0.43464294 4291248106
-0.85426104 0.52361983 0.43509179 4291248106
-0.84544671 0.5219112 0.4348278 4291248106
-0.8337062 0.52238482 0.43545696 4291248106
-0.82661998 0.52137494 0.43527061 4291248106
-0.81473094 0.52120793 0.43929869 4291248106
-0.80427855 0.52003694 0.43799976 4291248106
-1.115253 0.53104895 0.43884578 4291248106
-0.97431439 0.53007126 0.43365625 4291248106
-0.96209037 0.5303027 0.43358487 4291248106
-0.9592284 0.53037226 0.43282446 4291248106
-0.9478699 0.53066576 0.43851036 4291248106
-1.0923235 0.56540376 0.43192002 4291248106
-1.085042 0.56876224 0.43959108 4291248106
-1.0863069 0.57479626 0.43476501 4291248106
-1.086601 0.58475077 0.43520871 4291248106
-1.0849538 0.59521705 0.43534565 4291248106
-1.0833834 0.60514593 0.43466258 4291248106
-1.0819206 0.61544895 0.43582764 4291248106
-1.0795144 0.61777532 0.43215477 4291248106
-1.0821791 0.62443614 0.43516433 4291248106
-1.0791607 0.6283834 0.43438667 4291248106
-1.0827785 0.63530535 0.43556643 4291248106
-1.0789973 0.63215959 0.43129674 4291248106
-1.0858303 0.64492923 0.43453103 4291248106
-1.0862744 0.65565014 0.43514693 4291248106
-1.0905918 0.66531777 0.43379325 4291248106
-1.0874845 0.66470009 0.43554637 4291248106
-1.0913006 0.67102271 0.43251121 4291248106
-1.0862988 0.67477626 0.43585125 4291248106
-1.0909547 0.68773013 0.43880925 4291248106
-1.086939 0.68404245 0.43453279 4291248106
-1.0917311 0.69564009 0.43479615 4291248106
-1.0890181 0.69305134 0.43515253 4291248106
-1.0942264 0.70489722 0.43499395 4291248106
-1.0962254 0.71538049 0.43531853 4291248106
-1.1007817 0.72717893 0.43526262 4291248106
-1.0970168 0.72515076 0.43436339 4291248106
-1.1014572 0.73512292 0.43054295 4291248106
-1.097124 0.73550302 0.43580255 4291248106
-1.100629 0.7478559 0.43465903 4291248106
-1.0975307 0.74517554 0.43552831 4291248106
-1.101915 0.75603306 0.43512416 4291248106
-1.099156 0.75397581 0.43551019 4291248106
-1.1033525 0.76506901 0.43482602 4291248106
-1.1040514 0.77550888 0.43469119 4291248106
-1.1109947 0.78763294 0.4361009 4291248106
-1.107389 0.7842657 0.43468633 4291248106
-1.1123739 0.79474533 0.43413168 4291248106
-1.1056147 0.79416436 0.43794346 4291248106
-1.1122106 0.80483192 0.433575 4291248106
-1.1086106 0.80523217 0.43817621 4291248106
-1.1219971 0.81929862 0.43180558 4291248106
-1.1138012 0.81483525 0.43516108 4291248106
-1.1232212 0.82389396 0.43175706 4291248106
-1.116657 0.82617813 0.43667755 4291248106
-1.1220778 0.83472234 0.43122 4291248106
-1.1174412 0.83576649 0.43597504 4291248106
-1.1214432 0.84850079 0.43275204 4291248106
-1.116345 0.84498119 0.43504182 4291248106
-1.1240622 0.85723943 0.43459249 4291248106
-1.1184464 0.85298502 0.4362798 4291248106
-1.1321764 0.8672266 0.43402028 4291248106
-1.128476 0.86337715 0.4358297 4291248106
-1.1358217 0.87298489 0.43539709 4291248106
-0.64089811 0.45895019 0.44253606 4291248106
-0.63964146 0.45930037 0.44222626 4291248106
-0.64127094 0.46574205 0.44482771 4291248106
-0.6395005 0.46443385 0.4456771 4291248106
-0.64412546 0.47513855 0.44503358 4291248106
-0.65267199 0.48733169 0.4441731 4291248106
-0.64785403 0.48297131 0.44534507 4291248106
-0.68158793 0.4993749 0.44068807 4291248106
-0.6737529 0.4971939 0.4445833 4291248106
-0.66410941 0.49521682 0.44522357 4291248106
-0.65659571 0.49177149 0.44558498 4291248106
-0.72261673 0.50855929 0.44458508 4291248106
-0.71473223 0.50784063 0.44469932 4291248106
-0.70485938 0.50819796 0.44509605 4291248106
-0.69485438 0.50575393 0.44507724 4291248106
-0.68530476 0.50279129 0.44479239 4291248106
-0.67713028 0.50101048 0.44556072 4291248106
-0.81392092 0.51954901 0.4466252 4291248106
-0.80476671 0.51914179 0.44474134 4291248106
-0.79515129 0.51747054 0.44482026 4291248106
-0.78488243 0.51734275 0.44509396 4291248106
-0.77491325 0.51752281 0.44515532 4291248106
-0.76518774 0.51749849 0.44465581 4291248106
-0.75548685 0.51493698 0.44532129 4291248106
-0.74505889 0.51278335 0.44527784 4291248106
-0.73537302 0.51181149 0.44459793 4291248106
-0.72667027 0.51114428 0.44557291 4291248106
-0.71473175 0.51121652 0.44903043 4291248106
-1.11462 0.52699614 0.44504103 4291248106
-1.1053022 0.5254522 0.44474959 4291248106
-1.0938603 0.52465224 0.44503853 4291248106
-1.087556 0.52494931 0.44648322 4291248106
-1.0743647 0.52738065 0.44496509 4291248106
-1.0649052 0.52667648 0.44457963 4291248106
-1.0538183 0.52699113 0.44583482 4291248106
-1.0456374 0.52734071 0.44442472 4291248106
-1.0361503 0.52768266 0.44132838 4291248106
-1.0244918 0.52806771 0.44470543 4291248106
-1.0150805 0.52824736 0.44550952 4291248106
-1.0038205 0.52856421 0.44516709 4291248106
-0.99338341 0.52917951 0.4454616 4291248106
-0.98476976 0.5290367 0.44566861 4291248106
-0.97539991 0.52821523 0.44419333 4291248106
-0.9654367 0.52810931 0.44535133 4291248106
-0.95452708 0.52841109 0.44838229 4291248106
-0.94412041 0.52698684 0.44518185 4291248106
-0.93505001 0.52458835 0.4446581 4291248106
-0.92413485 0.52510542 0.44486627 4291248106
-0.91444331 0.52548683 0.44532385 4291248106
-0.90457928 0.5263952 0.44494468 4291248106
-0.89392251 0.52589792 0.445429 4291248106
-0.88479537 0.52400106 0.44473124 4291248106
-0.87440985 0.52293891 0.4446485 4291248106
-0.86484623 0.52337337 0.44524267 4291248106
-0.85458064 0.52333474 0.44505197 4291248106
-0.84640169 0.52164668 0.44418716 4291248106
-0.83608174 0.52226353 0.44546109 4291248106
-0.82482064 0.52241665 0.44537151 4291248106
-0.81616569 0.52177733 0.44460085 4291248106
-1.114944 0.53168172 0.44549891 4291248106
-1.0334905 0.53084838 0.44634596 4291248106
-1.0278163 0.53075063 0.44723371 4291248106
-0.9539516 0.53046435 0.44356331 4291248106
-0.94763041 0.53066963 0.44238019 4291248106
