# .PCD v0.7 - Point Cloud Data file format
VERSION 0.7
FIELDS x y z rgba
SIZE 4 4 4 4
TYPE F F F U
COUNT 1 1 1 1
WIDTH 1079
HEIGHT 1
VIEWPOINT 0 0 0 1 0 0 0
POINTS 1079
DATA ascii
-0.6878857 0.50029111 0.36498764 4278821823
-1.1365048 0.51210475 0.36505654 4278821823
-1.1144478 0.51610845 0.36510542 4278821823
-1.1031312 0.51722026 0.36521015 4278821823
-1.0827925 0.51876843 0.36397913 4278821823
-1.0758703 0.51895177 0.36287332 4278821823
-1.0666157 0.51926619 0.36264333 4278821823
-1.0558317 0.51969975 0.36300886 4278821823
-1.0492895 0.51966935 0.36069286 4278821823
-1.038729 0.5199585 0.3619639 4278821823
-1.0132694 0.51975977 0.36091504 4278821823
-1.005002 0.51909047 0.36377728 4278821823
-0.9955247 0.51865321 0.36342275 4278821823
-0.98566824 0.51988572 0.36302474 4278821823
-0.97979617 0.51982504 0.36020115 4278821823
-0.95429981 0.51881737 0.36683673 4278821823
-0.91628349 0.51848483 0.36449185 4278821823
-0.89525878 0.51800346 0.36225718 4278821823
-0.88570315 0.51927131 0.36392996 4278821823
-0.87557811 0.51896548 0.36396977 4278821823
-0.86505175 0.51820254 0.36510593 4278821823
-0.8536914 0.51816112 0.36513004 4278821823
-0.84465379 0.5172525 0.36523011 4278821823
-0.83512974 0.51615149 0.3646498 4278821823
-0.82517129 0.51581246 0.36471501 4278821823
-0.81470156 0.51753628 0.3650347 4278821823
-0.80476582 0.51658356 0.36502826 4278821823
-0.79515535 0.51527965 0.36518255 4278821823
-0.78482699 0.51494193 0.36519542 4278821823
-0.77443737 0.51428139 0.36540315 4278821823
-0.76490408 0.51272935 0.36471522 4278821823
-0.75556874 0.51154244 0.36475191 4278821823
-0.74659139 0.51105845 0.36765745 4278821823
-0.73715776 0.51077086 0.36627156 4278821823
-1.1348884 0.5216856 0.3648105 4278821823
-1.1270761 0.52209204 0.36423796 4278821823
-1.1127672 0.52488953 0.36540648 4278821823
-1.1046638 0.52415895 0.36577982 4278821823
-1.0950382 0.52407295 0.36396071 4278821823
-1.0843486 0.52408165 0.3654063 4278821823
-1.0762473 0.52385473 0.3667644 4278821823
-1.0655223 0.52332526 0.36588636 4278821823
-1.0545522 0.52269131 0.36592379 4278821823
-1.0443783 0.52279133 0.36610404 4278821823
-1.0348216 0.52248055 0.36556789 4278821823
-1.0252131 0.52264857 0.36533049 4278821823
-1.0147094 0.52348971 0.36498556 4278821823
-1.0052381 0.52326387 0.36538756 4278821823
-0.995426 0.52384424 0.3660582 4278821823
-0.98737186 0.52688485 0.36430025 4278821823
-0.97525871 0.52621436 0.36501321 4278821823
-0.96514696 0.52564108 0.36510971 4278821823
-0.95519716 0.52529216 0.36545569 4278821823
-0.94595176 0.52455372 0.36484858 4278821823
-0.93474936 0.52444339 0.36538821 4278821823
-0.92456728 0.52402002 0.36459237 4278821823
-0.91480225 0.52365023 0.36495793 4278821823
-0.90519416 0.52306306 0.36487859 4278821823
-0.89558822 0.52245188 0.3652001 4278821823
-0.88585991 0.52239263 0.36626688 4278821823
-0.87443352 0.52143764 0.3674356 4278821823
-0.86496878 0.52168649 0.36528203 4278821823
-0.85465884 0.52251136 0.36527306 4278821823
-0.84711182 0.52170682 0.36534029 4278821823
-0.83475065 0.52151996 0.36505875 4278821823
-0.82470322 0.52139944 0.3648876 4278821823
-0.81521273 0.52074468 0.36513051 4278821823
-0.80740815 0.52082551 0.36379743 4278821823
-0.99302214 0.53088665 0.36138242 4278821823
-0.98839927 0.53096545 0.36315632 4278821823
-0.975869 0.53175378 0.3678174 4278821823
-0.96433127 0.53141266 0.36809704 4278821823
-0.95903653 0.53030884 0.36400634 4278821823
-0.92834866 0.53130829 0.36102211 4278821823
-0.91580856 0.53006351 0.36855248 4278821823
-1.0818441 0.56592095 0.36641634 4278821823
-1.0775356 0.56701946 0.36635944 4278821823
-1.0814085 0.57461196 0.36360544 4278821823
-1.0762342 0.57513452 0.36531773 4278821823
-1.0672199 0.57574159 0.36508554 4278821823
-1.0809914 0.58543223 0.36356276 4278821823
-1.0761689 0.58547026 0.36508301 4278821823
-1.0689441 0.58076441 0.36378369 4278821823
-1.0762624 0.59528065 0.36484948 4278821823
-1.080701 0.60657674 0.36524531 4278821823
-1.0769341 0.6051299 0.36489868 4278821823
-1.0812443 0.61420435 0.36443064 4278821823
-1.0777249 0.61449581 0.36539683 4278821823
-1.0818403 0.6238426 0.36465293 4278821823
-1.07718 0.62533408 0.36520433 4278821823
-1.0814781 0.63535237 0.36416438 4278821823
-1.0769399 0.63525015 0.36436868 4278821823
-1.0819343 0.64597028 0.36562392 4278821823
-1.0773697 0.64461213 0.36453849 4278821823
-1.0821095 0.6554693 0.36468372 4278821823
-1.0787845 0.65408248 0.36480379 4278821823
-1.0830874 0.66506028 0.36408794 4278821823
-1.0784931 0.66324967 0.36541736 4278821823
-1.09165 0.67747867 0.3658914 4278821823
-1.0851713 0.67513919 0.36482772 4278821823
-1.0792581 0.67332125 0.36591849 4278821823
-1.0914838 0.68513072 0.36592078 4278821823
-1.0866103 0.68506193 0.36402118 4278821823
-1.0925716 0.6957258 0.3647145 4278821823
-1.0855659 0.69499892 0.36403012 4278821823
-1.0790634 0.69178128 0.36235449 4278821823
-1.0918505 0.70603418 0.36649039 4278821823
-1.0878652 0.70584369 0.36634615 4278821823
-1.09232 0.71515048 0.36546606 4278821823
-1.0886523 0.71388394 0.36409336 4278821823
-1.0938725 0.72533703 0.36525649 4278821823
-1.1001074 0.73813093 0.36735064 4278821823
-1.0965173 0.73486203 0.36518574 4278821823
-1.1006856 0.74629116 0.36322671 4278821823
-1.097596 0.74450928 0.36510894 4278821823
-1.1015164 0.75582606 0.36526561 4278821823
-1.0979681 0.75433397 0.36498201 4278821823
-1.1035244 0.76491684 0.36479104 4278821823
-1.0997148 0.76175737 0.36393428 4278821823
-1.105 0.77475852 0.36470139 4278821823
-1.1108761 0.78351927 0.36761612 4278821823
-1.1061447 0.78494191 0.36371231 4278821823
-1.0958192 0.78610986 0.36930621 4278821823
-1.1121279 0.79627138 0.3646588 4278821823
-1.1071746 0.79458928 0.36455238 4278821823
-1.0982425 0.79139256 0.36861351 4278821823
-1.113664 0.80472964 0.3649244 4278821823
-1.1047921 0.80519271 0.36362833 4278821823
-1.1131291 0.81450796 0.36340949 4278821823
-1.1062933 0.81166965 0.36187863 4278821823
-1.1207614 0.82738483 0.36672384 4278821823
-1.1167531 0.82405066 0.36412057 4278821823
-1.1229479 0.83548653 0.36479619 4278821823
-1.1188376 0.83143866 0.36433887 4278821823
-1.1251992 0.84475148 0.36410117 4278821823
-1.1275429 0.85455537 0.36306384 4278821823
-1.129181 0.86179733 0.3614786 4278821823
-0.6437313 0.41704994 0.37567872 4278821823
-0.63923484 0.41959849 0.37295896 4278821823
-0.6425119 0.42593649 0.37569511 4278821823
-0.63910055 0.42498186 0.37235346 4278821823
-0.64408517 0.43628463 0.37395591 4278821823
-0.63961482 0.43459916 0.37217057 4278821823
-0.65150774 0.44603872 0.37690839 4278821823
-0.6444118 0.44531721 0.37495464 4278821823
-0.63985789 0.44089228 0.37216455 4278821823
-0.65290612 0.45513815 0.37519905 4278821823
-0.64621711 0.45420805 0.37411132 4278821823
-0.65192544 0.46674803 0.3743296 4278821823
-0.6479823 0.46364239 0.37484005 4278821823
-0.66178077 0.47750172 0.37433016 4278821823
-0.65470302 0.47488034 0.37475398 4278821823
-0.64937115 0.47274897 0.3781637 4278821823
-0.67170793 0.48905864 0.37314251 4278821823
-0.66400599 0.48696893 0.37538534 4278821823
-0.65734392 0.48334828 0.37525275 4278821823
-0.7027812 0.49896744 0.37472215 4278821823
-0.69411337 0.49801612 0.37487334 4278821823
-0.68516612 0.49541816 0.37468368 4278821823
-0.67525053 0.49277458 0.37509522 4278821823
-0.66797984 0.49097505 0.37572271 4278821823
-0.76198548 0.50960267 0.37438768 4278821823
-0.75658882 0.50981402 0.37261814 4278821823
-0.74316037 0.50897628 0.37574142 4278821823
-0.73501062 0.5080055 0.37486678 4278821823
-0.72536951 0.50664723 0.37486851 4278821823
-0.71464074 0.50509167 0.37505686 4278821823
-0.70597965 0.50252032 0.37493789 4278821823
-0.69566917 0.50122464 0.37575313 4278821823
-0.68855798 0.50010365 0.37856343 4278821823
-1.1380247 0.51762962 0.37212297 4278821823
-1.123868 0.51800907 0.37244192 4278821823
-1.1161823 0.51652336 0.37147507 4278821823
-1.1063783 0.5178833 0.37115681 4278821823
-1.0717313 0.51943064 0.37820029 4278821823
-1.063856 0.5192008 0.37641156 4278821823
-1.0586443 0.51957411 0.37177885 4278821823
-1.0431973 0.51827729 0.37338552 4278821823
-1.0367479 0.51853257 0.37420836 4278821823
-0.93647093 0.51966113 0.37328729 4278821823
-0.88462198 0.51972991 0.3752268 4278821823
-0.87531549 0.51825655 0.37215924 4278821823
-0.86464429 0.51858783 0.37491703 4278821823
-0.85431939 0.5185349 0.37446132 4278821823
-0.84527516 0.51767063 0.37313721 4278821823
-0.83486634 0.51729715 0.3751249 4278821823
-0.82522374 0.51722986 0.37526965 4278821823
-0.81391972 0.51809472 0.37475702 4278821823
-0.80511785 0.51700878 0.37442005 4278821823
-0.79500169 0.51583964 0.37514046 4278821823
-0.78507721 0.51527047 0.37508154 4278821823
-0.7749455 0.51390487 0.37478662 4278821823
-0.7652272 0.51273811 0.37536967 4278821823
-0.75568092 0.51185614 0.37462899 4278821823
-0.74656194 0.51085556 0.37492347 4278821823
-0.7362687 0.51045698 0.3763276 4278821823
-1.1334873 0.52201182 0.37053481 4278821823
-1.1223589 0.52461094 0.37598476 4278821823
-1.1143969 0.52386904 0.37540722 4278821823
-1.1047078 0.52288222 0.37589285 4278821823
-1.0939159 0.52386713 0.37546837 4278821823
-1.0847831 0.52470446 0.37514821 4278821823
-1.074831 0.52471346 0.37490854 4278821823
-1.0650817 0.52373147 0.37424049 4278821823
-1.0551049 0.52256316 0.37448481 4278821823
-1.0444626 0.52237827 0.37490007 4278821823
-1.0340512 0.52302939 0.37540174 4278821823
-1.0244185 0.52325457 0.37491369 4278821823
-1.0146601 0.5239802 0.37477875 4278821823
-1.0053484 0.52420503 0.37531218 4278821823
-0.99579579 0.52427644 0.37453148 4278821823
-0.98415238 0.52584958 0.37528086 4278821823
-0.97461247 0.52566475 0.37500426 4278821823
-0.96460336 0.52616036 0.37446684 4278821823
-0.95445013 0.52592945 0.37445766 4278821823
-0.94464219 0.52543318 0.37510684 4278821823
-0.93516821 0.52509457 0.3749491 4278821823
-0.92531264 0.5241797 0.37471572 4278821823
-0.91503131 0.52356386 0.37493956 4278821823
-0.9049021 0.5238409 0.37509584 4278821823
-0.89511168 0.52351987 0.37492007 4278821823
-0.88485378 0.52338701 0.37512851 4278821823
-0.87533569 0.52237952 0.37551042 4278821823
-0.86477971 0.5222162 0.37564433 4278821823
-0.85441613 0.52296776 0.37642837 4278821823
-0.84309465 0.52198988 0.37674847 4278821823
-0.83759832 0.5213744 0.376376 4278821823
-0.82391155 0.52310538 0.37563056 4278821823
-0.81534159 0.52220064 0.37525374 4278821823
-0.80488968 0.52107787 0.37815854 4278821823
-0.79842633 0.52014899 0.37729245 4278821823
-0.96781778 0.53115606 0.37145182 4278821823
-0.95358723 0.53080302 0.3728089 4278821823
-0.94828534 0.5327087 0.37827778 4278821823
-1.0915742 0.56350803 0.37180915 4278821823
-1.0843968 0.56623346 0.37527943 4278821823
-1.0770649 0.56780529 0.37497878 4278821823
-1.0809537 0.57501668 0.37599945 4278821823
-1.0775447 0.57543975 0.37475625 4278821823
-1.0806201 0.58521891 0.3768248 4278821823
-1.0774174 0.58510607 0.37476936 4278821823
-1.0808872 0.59421468 0.37477618 4278821823
-1.0769526 0.59465575 0.37480816 4278821823
-1.0817627 0.6062569 0.37701738 4278821823
-1.0763227 0.60494781 0.37416586 4278821823
-1.0822308 0.61485952 0.373732 4278821823
-1.0765057 0.61545247 0.37700224 4278821823
-1.0816728 0.62619925 0.37419856 4278821823
-1.0773427 0.62457985 0.37574294 4278821823
-1.0814517 0.63587248 0.37476873 4278821823
-1.0775119 0.63495022 0.37556562 4278821823
-1.0823102 0.64564532 0.37553677 4278821823
-1.0778283 0.64474213 0.37399644 4278821823
-1.0835588 0.65477741 0.37492645 4278821823
-1.0767796 0.65333104 0.37354174 4278821823
-1.0838126 0.66531974 0.37499392 4278821823
-1.0783715 0.66244173 0.37350112 4278821823
-1.090834 0.67732012 0.3731823 4278821823
-1.0852709 0.67478126 0.37541047 4278821823
-1.0915186 0.68318582 0.37122166 4278821823
-1.0872459 0.68530691 0.37573031 4278821823
-1.090709 0.69481468 0.37303579 4278821823
-1.0874929 0.69513571 0.37526217 4278821823
-1.0914896 0.70552057 0.37559271 4278821823
-1.0884144 0.7035051 0.37496686 4278821823
-1.0929627 0.71493936 0.37522084 4278821823
-1.0892787 0.71395439 0.37499416 4278821823
-1.0948663 0.72466898 0.37462157 4278821823
-1.0890287 0.72485417 0.37816131 4278821823
-1.1000569 0.73924941 0.37640193 4278821823
-1.0958849 0.73491788 0.37507254 4278821823
-1.1005151 0.74538881 0.37427244 4278821823
-1.0964165 0.74490011 0.37454611 4278821823
-1.0893118 0.74642676 0.37930629 4278821823
-1.1018798 0.75590813 0.37291837 4278821823
-1.0968493 0.75441122 0.3755424 4278821823
-1.1021461 0.76368332 0.37334189 4278821823
-1.0985124 0.7658003 0.37557274 4278821823
-1.1106821 0.77993834 0.37860146 4278821823
-1.1022705 0.77656579 0.37352139 4278821823
-1.098856 0.7730633 0.37400478 4278821823
-1.1115805 0.78631628 0.37625155 4278821823
-1.1084522 0.78444839 0.37386748 4278821823
-1.0965284 0.78443086 0.37115675 4278821823
-1.1111008 0.79513878 0.37385291 4278821823
-1.108915 0.79560632 0.37501028 4278821823
-1.1118406 0.80434799 0.37366822 4278821823
-1.1083819 0.80580604 0.37587589 4278821823
-1.1153049 0.81495708 0.37275976 4278821823
-1.1081835 0.81425714 0.37522742 4278821823
-1.1175371 0.82444942 0.37160212 4278821823
-1.1205913 0.8321439 0.37036148 4278821823
-1.1199279 0.83007425 0.37089911 4278821823
-0.64955282 0.40997729 0.38872913 4278821823
-0.6433562 0.41635156 0.38537085 4278821823
-0.64247274 0.42543873 0.38447294 4278821823
-0.63888216 0.42983842 0.38893667 4278821823
-0.65357929 0.43835279 0.3873671 4278821823
-0.64230019 0.43404946 0.3848196 4278821823
-0.63956779 0.43612617 0.38617092 4278821823
-0.65292406 0.44491398 0.38444328 4278821823
-0.64271271 0.44518432 0.38469994 4278821823
-0.63905817 0.44375935 0.38508913 4278821823
-0.65322071 0.45566532 0.38519123 4278821823
-0.64409608 0.45504853 0.3851243 4278821823
-0.65169466 0.4667069 0.38522449 4278821823
-0.64689034 0.46481976 0.3854939 4278821823
-0.66131657 0.47739542 0.38594496 4278821823
-0.65316868 0.4750194 0.38525048 4278821823
-0.64884734 0.47314295 0.3849071 4278821823
-0.67111844 0.48886546 0.38472024 4278821823
-0.66434193 0.48698434 0.3853648 4278821823
-0.65670294 0.48271775 0.38403487 4278821823
-0.6498096 0.48044252 0.38476861 4278821823
-0.70292664 0.49970725 0.3818326 4278821823
-0.69272798 0.49840519 0.38452494 4278821823
-0.68433386 0.49705505 0.38511193 4278821823
-0.67503339 0.49311528 0.38493332 4278821823
-0.66722739 0.49133566 0.38502905 4278821823
-0.65740424 0.49001867 0.38223815 4278821823
-0.76175749 0.50965095 0.38271964 4278821823
-0.75967348 0.50963485 0.38043308 4278821823
-0.74296856 0.50905591 0.3855482 4278821823
-0.73475051 0.50781488 0.38453743 4278821823
-0.72485948 0.50689453 0.38498947 4278821823
-0.71489626 0.50541139 0.3847506 4278821823
-0.70484126 0.5030275 0.38519037 4278821823
-0.695732 0.50117594 0.38528624 4278821823
-0.68913841 0.50078255 0.38551566 4278821823
-1.1338036 0.5177604 0.38895002 4278821823
-1.123448 0.51785463 0.38435978 4278821823
-1.0808017 0.51950073 0.38815203 4278821823
-1.0746442 0.51957542 0.38536486 4278821823
-1.0676806 0.5196439 0.38169327 4278821823
-0.86434972 0.51924777 0.38554558 4278821823
-0.85537434 0.51927781 0.38460761 4278821823
-0.84493572 0.51912463 0.38365164 4278821823
-0.83367532 0.5181964 0.38355449 4278821823
-0.82500881 0.51807076 0.38493896 4278821823
-0.81531858 0.51762086 0.38496065 4278821823
-0.80469114 0.51731497 0.38514283 4278821823
-0.79503697 0.51623428 0.38489264 4278821823
-0.78486592 0.51555139 0.38510102 4278821823
-0.77509087 0.5151096 0.38496831 4278821823
-0.76496917 0.51390225 0.38504702 4278821823
-0.7550109 0.5121389 0.38511103 4278821823
-0.74621487 0.51129127 0.38481954 4278821823
-0.73645359 0.51053375 0.38547406 4278821823
-1.1333838 0.52114928 0.38612774 4278821823
-1.1233147 0.52356696 0.38604027 4278821823
-1.1160743 0.52340055 0.38355696 4278821823
-1.1048154 0.5241698 0.38403901 4278821823
-1.0950257 0.52399617 0.38506675 4278821823
-1.0850215 0.52382988 0.38516393 4278821823
-1.0755424 0.524032 0.38405868 4278821823
-1.0641085 0.52328569 0.38493994 4278821823
-1.0546818 0.52380687 0.38533017 4278821823
-1.045416 0.52397615 0.38506079 4278821823
-1.0349799 0.52416414 0.38517427 4278821823
-1.0258464 0.52439302 0.38531592 4278821823
-1.0146855 0.52488285 0.38497391 4278821823
-1.0041051 0.5258137 0.38513786 4278821823
-0.99433202 0.52611262 0.3850069 4278821823
-0.98531294 0.52579349 0.38478032 4278821823
-0.974186 0.52592641 0.38548172 4278821823
-0.96532822 0.52529675 0.38462672 4278821823
-0.95497924 0.52489805 0.3852036 4278821823
-0.94542205 0.52520579 0.38409963 4278821823
-0.93412876 0.52573466 0.38487905 4278821823
-0.92539412 0.52493227 0.38527501 4278821823
-0.9144758 0.52480376 0.38498685 4278821823
-0.90513158 0.52432668 0.38483363 4278821823
-0.89499837 0.52419555 0.3849676 4278821823
-0.88473845 0.52378327 0.38488272 4278821823
-0.87522817 0.52306259 0.3848497 4278821823
-0.86608452 0.52291113 0.38472846 4278821823
-0.85516053 0.5225867 0.38414508 4278821823
-0.84501195 0.52142739 0.38579431 4278821823
-0.83593088 0.52150893 0.38508216 4278821823
-0.82621431 0.5221765 0.3858754 4278821823
-0.81471843 0.52247894 0.38550594 4278821823
-0.80533195 0.52121478 0.38457957 4278821823
-0.79802483 0.5208146 0.38592616 4278821823
-0.78363866 0.52009565 0.38763916 4278821823
-0.77964264 0.52001095 0.38404873 4278821823
-0.7686761 0.52067626 0.38870806 4278821823
-1.104166 0.53065473 0.38689882 4278821823
-1.0973625 0.53123266 0.38902873 4278821823
-0.99302071 0.53102183 0.38911936 4278821823
-0.94062167 0.53025103 0.38502795 4278821823
-0.93648809 0.53038901 0.38519314 4278821823
-1.0802755 0.56969982 0.38960299 4278821823
-1.076998 0.56848234 0.38487014 4278821823
-1.081292 0.57341689 0.38452938 4278821823
-1.0769801 0.57526541 0.38505387 4278821823
-1.0810661 0.58377862 0.38284111 4278821823
-1.0775628 0.58533931 0.38443112 4278821823
-1.0803554 0.59887099 0.38458663 4278821823
-1.0759619 0.59481746 0.38469651 4278821823
-1.0800469 0.60945946 0.38831651 4278821823
-1.0749692 0.60548943 0.38424674 4278821823
-1.0693702 0.60263288 0.38308024 4278821823
-1.0819728 0.61415607 0.387449 4278821823
-1.0765657 0.61335993 0.38278985 4278821823
-1.0813785 0.62776369 0.38640332 4278821823
-1.0771137 0.6242516 0.38453123 4278821823
-1.0824158 0.63593221 0.38472199 4278821823
-1.0788796 0.63179934 0.38322663 4278821823
-1.083648 0.64483762 0.38507551 4278821823
-1.0798361 0.64588451 0.38755414 4278821823
-1.0835917 0.65449429 0.38476247 4278821823
-1.0795882 0.65446854 0.38586211 4278821823
-1.0838447 0.66498095 0.38483113 4278821823
-1.0844748 0.6750834 0.38486201 4278821823
-1.0906111 0.68766522 0.3890149 4278821823
-1.0869 0.68456101 0.38543755 4278821823
-1.0917745 0.69544816 0.38584834 4278821823
-1.0881511 0.69461226 0.38306683 4278821823
-1.0927621 0.70627391 0.38575381 4278821823
-1.0882502 0.7054739 0.38514185 4278821823
-1.0931928 0.71535063 0.38456136 4278821823
-1.0893054 0.71243596 0.38637269 4278821823
-1.0946755 0.72417998 0.38282877 4278821823
-1.088406 0.7259472 0.38487217 4278821823
-1.1014001 0.73512477 0.3866863 4278821823
-1.0983481 0.73397154 0.38426802 4278821823
-1.0864434 0.73477739 0.38356191 4278821823
-1.1023403 0.741745 0.38472649 4278821823
-1.0943711 0.7461946 0.38245913 4278821823
-1.0884315 0.74113482 0.38170525 4278821823
-1.100564 0.75698888 0.38100168 4278821823
-1.0971671 0.75367045 0.38459176 4278821823
-1.08955 0.75825429 0.38889492 4278821823
-1.1012818 0.76768339 0.38178939 4278821823
-1.094938 0.76417744 0.38557947 4278821823
-1.1024201 0.77432191 0.38313377 4278821823
-1.0996444 0.7710728 0.38445738 4278821823
-1.1110595 0.7874518 0.38109145 4278821823
-1.1069092 0.78163308 0.38200989 4278821823
-1.1123906 0.79160464 0.3800126 4278821823
-1.1086508 0.79489052 0.38003919 4278821823
-0.65132684 0.41268259 0.39492184 4278821823
-0.64343798 0.41781774 0.39471188 4278821823
-0.63831258 0.41729116 0.39396012 4278821823
-0.64215881 0.42600778 0.39541748 4278821823
-0.63958335 0.42620587 0.39294994 4278821823
-0.65453184 0.43796322 0.39303324 4278821823
-0.6417405 0.43523601 0.39527857 4278821823
-0.63948107 0.43451101 0.39681154 4278821823
-0.65273803 0.44515693 0.39411822 4278821823
-0.64399791 0.44567078 0.39629084 4278821823
-0.63949132 0.44440287 0.39387167 4278821823
-0.65218198 0.45614833 0.39717394 4278821823
-0.64453942 0.45497346 0.3952513 4278821823
-0.63981968 0.45038635 0.39775065 4278821823
-0.65267617 0.46639025 0.39555249 4278821823
-0.64738935 0.46461949 0.39435759 4278821823
-0.66124445 0.47681844 0.39447775 4278821823
-0.65380776 0.47571951 0.39491415 4278821823
-0.64878893 0.47364777 0.39446223 4278821823
-0.67078918 0.48941445 0.3960835 4278821823
-0.66417217 0.48712739 0.3951278 4278821823
-0.65679502 0.48385769 0.39603409 4278821823
-0.70182818 0.49929351 0.39687359 4278821823
-0.69229472 0.49921477 0.39454073 4278821823
-0.6851294 0.49748278 0.39451149 4278821823
-0.67527634 0.49425513 0.39509398 4278821823
-0.66797084 0.49184403 0.39555305 4278821823
-0.75195652 0.50944793 0.39536047 4278821823
-0.74541038 0.50936532 0.39388126 4278821823
-0.73283571 0.50874919 0.39498061 4278821823
-0.72489834 0.50780785 0.39483339 4278821823
-0.71490872 0.50627303 0.39499572 4278821823
-0.70528471 0.50385159 0.39499483 4278821823
-0.69620836 0.50197309 0.39493465 4278821823
-0.68745899 0.50060803 0.39830294 4278821823
-1.1268321 0.51805502 0.39447176 4278821823
-0.87575936 0.51904547 0.39260316 4278821823
-0.86421275 0.51925182 0.39295074 4278821823
-0.85521543 0.51954269 0.39280325 4278821823
-0.84536815 0.51810002 0.39542252 4278821823
-0.83273852 0.51897687 0.3969309 4278821823
-0.82452792 0.51869518 0.39459738 4278821823
-0.81483126 0.51797652 0.3944923 4278821823
-0.80452996 0.51742959 0.39530754 4278821823
-0.79529595 0.51633352 0.39497396 4278821823
-0.78478634 0.51603675 0.3950682 4278821823
-0.77520823 0.51529139 0.39540824 4278821823
-0.76499659 0.51417303 0.39466166 4278821823
-0.75502098 0.51279187 0.39534914 4278821823
-0.74567866 0.51138532 0.39522067 4278821823
-0.73567748 0.51081347 0.39619935 4278821823
-0.72817445 0.51110542 0.39649755 4278821823
-1.1253645 0.52299953 0.39481995 4278821823
-1.1158228 0.5211885 0.39322984 4278821823
-1.1051099 0.52297527 0.39454383 4278821823
-1.0938401 0.52514398 0.39418015 4278821823
-1.0851408 0.52427375 0.39472866 4278821823
-1.0748352 0.52419561 0.39496067 4278821823
-1.0641339 0.52462941 0.39490414 4278821823
-1.0557417 0.52440405 0.39428344 4278821823
-1.0450941 0.52463752 0.39563224 4278821823
-1.0347549 0.52527887 0.39514765 4278821823
-1.0246993 0.52592725 0.39520946 4278821823
-1.0153886 0.52669257 0.39502025 4278821823
-1.0043844 0.52744454 0.39560127 4278821823
-0.99520117 0.52763569 0.3949523 4278821823
-0.9853918 0.52679634 0.39493859 4278821823
-0.97582126 0.52617681 0.39488849 4278821823
-0.96445233 0.52638179 0.39487788 4278821823
-0.95519334 0.52524096 0.39511275 4278821823
-0.94505447 0.52452809 0.39473212 4278821823
-0.93503207 0.52446419 0.39541802 4278821823
-0.92486596 0.52563483 0.39413294 4278821823
-0.91525221 0.52565312 0.39405501 4278821823
-0.90455121 0.52572161 0.39388406 4278821823
-0.89446962 0.52524078 0.39517733 4278821823
-0.8850435 0.52405632 0.39458239 4278821823
-0.87442684 0.52418154 0.39535117 4278821823
-0.86571193 0.52374256 0.39600998 4278821823
-0.85443532 0.5221262 0.39587992 4278821823
-0.84623909 0.52148592 0.39497107 4278821823
-0.8351562 0.52226299 0.39481091 4278821823
-0.82677817 0.52241212 0.39491889 4278821823
-0.81446797 0.52125514 0.39558518 4278821823
-0.80650789 0.52068758 0.3935945 4278821823
-0.79312932 0.52029687 0.39616635 4278821823
-0.78788447 0.52018571 0.39145398 4278821823
-0.77090335 0.52072352 0.39070925 4278821823
-1.0915815 0.53134835 0.39091238 4278821823
-1.0023317 0.53090537 0.39826405 4278821823
-0.99725294 0.5309689 0.39327604 4278821823
-0.91241503 0.53188038 0.3944661 4278821823
-0.90275353 0.53244984 0.39635003 4278821823
-0.89817947 0.53228545 0.39782831 4278821823
-1.0828829 0.56797785 0.39340651 4278821823
-1.0773236 0.56909555 0.39617646 4278821823
-1.0823172 0.5744946 0.39458376 4278821823
-1.0771055 0.57484704 0.39298722 4278821823
-1.0814594 0.58530396 0.39661214 4278821823
-1.0777812 0.58577949 0.39494455 4278821823
-1.0809784 0.59506881 0.39636064 4278821823
-1.0779204 0.59469789 0.39402056 4278821823
-1.0812314 0.60704464 0.39577001 4278821823
-1.0779991 0.60466731 0.39493597 4278821823
-1.0815014 0.61639082 0.39655754 4278821823
-1.0779991 0.61524147 0.39457679 4278821823
-1.0822899 0.62539881 0.3949616 4278821823
-1.078488 0.62450331 0.39495406 4278821823
-1.0830739 0.63407969 0.39389735 4278821823
-1.0782517 0.63689131 0.3973144 4278821823
-1.0823966 0.6456542 0.39491773 4278821823
-1.0788927 0.64375472 0.39675945 4278821823
-1.0827699 0.65454942 0.39535776 4278821823
-1.0792453 0.65405512 0.39688683 4278821823
-1.0833225 0.66516072 0.3950296 4278821823
-1.0786077 0.66184032 0.39222813 4278821823
-1.0904001 0.67694187 0.39560965 4278821823
-1.0859568 0.67415476 0.39432603 4278821823
-1.0916865 0.68804502 0.39124718 4278821823
-1.0869607 0.6843344 0.39430839 4278821823
-1.0917578 0.69780624 0.3924225 4278821823
-1.0865821 0.69470406 0.39466625 4278821823
-1.0938878 0.70363283 0.39237702 4278821823
-1.0882821 0.70496869 0.39506519 4278821823
-1.0947444 0.71585697 0.3946121 4278821823
-1.1000708 0.72817457 0.3909339 4278821823
-1.0960122 0.7248401 0.39401254 4278821823
-1.1004212 0.73428714 0.39168414 4278821823
-1.098164 0.73472708 0.39289045 4278821823
-1.1007688 0.74039125 0.39243659 4278821823
-1.0949017 0.7459017 0.39124912 4278821823
-1.0929869 0.75536704 0.39085677 4278821823
-0.64559704 0.4165397 0.40709248 4278821823
-0.63955534 0.41952008 0.40670207 4278821823
-0.64244992 0.42550221 0.40573052 4278821823
-0.63869137 0.42598921 0.40455323 4278821823
-0.65248674 0.43813819 0.40676984 4278821823
-0.64185065 0.43528345 0.40450656 4278821823
-0.63915712 0.43555272 0.40553296 4278821823
-0.65109199 0.44436097 0.4041101 4278821823
-0.64459223 0.44505703 0.40495327 4278821823
-0.63974643 0.44426891 0.40681431 4278821823
-0.65076947 0.45518783 0.40274131 4278821823
-0.64553463 0.45464259 0.40534842 4278821823
-0.65206099 0.46673393 0.40496656 4278821823
-0.64726084 0.46490446 0.40509757 4278821823
-0.66130406 0.47831926 0.40671575 4278821823
-0.65386194 0.47537687 0.40464431 4278821823
-0.64924121 0.47270986 0.40582621 4278821823
-0.6707921 0.48898065 0.40564901 4278821823
-0.66349316 0.48708281 0.40494183 4278821823
-0.65710938 0.48299164 0.40372247 4278821823
-0.64991289 0.48174927 0.40023676 4278821823
-0.69264001 0.49877843 0.40447152 4278821823
-0.68389297 0.49752593 0.4056302 4278821823
-0.67529738 0.49399412 0.40468997 4278821823
-0.66714704 0.49136826 0.40559107 4278821823
-0.65918207 0.49032593 0.40617034 4278821823
-0.74203175 0.50858444 0.40745401 4278821823
-0.73407346 0.50837988 0.40531766 4278821823
-0.72416377 0.50775909 0.40390924 4278821823
-0.71463948 0.5064497 0.40448919 4278821823
-0.70476598 0.50465715 0.40523395 4278821823
-0.69562745 0.50203347 0.40512678 4278821823
-0.6864171 0.50059575 0.40574148 4278821823
-0.86150926 0.51998776 0.40405539 4278821823
-0.84546506 0.51857436 0.40317982 4278821823
-0.83339262 0.5192129 0.40462983 4278821823
-0.82598448 0.51916385 0.40327033 4278821823
-0.81279242 0.51860344 0.40285859 4278821823
-0.8048178 0.51806444 0.40384871 4278821823
-0.79468012 0.51708877 0.40442026 4278821823
-0.78498745 0.51623595 0.40496069 4278821823
-0.77505696 0.5155468 0.40476048 4278821823
-0.76516712 0.51515019 0.40520036 4278821823
-0.7552892 0.51358533 0.40487704 4278821823
-0.74455357 0.51230472 0.40523347 4278821823
-0.73630917 0.51140797 0.40387779 4278821823
-0.72530246 0.51151514 0.40573597 4278821823
-0.71749341 0.5105443 0.40647694 4278821823
-1.1140858 0.52305084 0.4034645 4278821823
-1.1053238 0.52431917 0.40562677 4278821823
-1.0956149 0.52399421 0.40495318 4278821823
-1.0842934 0.52481508 0.40558797 4278821823
-1.0750074 0.52447945 0.40539515 4278821823
-1.0657973 0.52433288 0.40401649 4278821823
-1.0536519 0.52595717 0.40405762 4278821823
-1.0449203 0.52575999 0.40382442 4278821823
-1.0341681 0.52713716 0.40550184 4278821823
-1.0240072 0.52709085 0.40468082 4278821823
-1.016266 0.52694106 0.40475559 4278821823
-1.0052172 0.52800244 0.40547952 4278821823
-0.99477392 0.52824557 0.40518609 4278821823
-0.985264 0.5268271 0.40474328 4278821823
-0.97574764 0.52620524 0.40427348 4278821823
-0.96416956 0.52685553 0.40399978 4278821823
-0.9548263 0.52614647 0.40509045 4278821823
-0.94580621 0.52595323 0.40527901 4278821823
-0.93547481 0.52626932 0.40540799 4278821823
-0.92480183 0.52588409 0.40416846 4278821823
-0.91458279 0.52603662 0.40532947 4278821823
-0.90473861 0.52661175 0.40458021 4278821823
-0.89489043 0.52652735 0.40423292 4278821823
-0.88490784 0.52541435 0.40466261 4278821823
-0.87524092 0.52489376 0.40442136 4278821823
-0.86437565 0.52459764 0.40550911 4278821823
-0.8551355 0.52303797 0.40505296 4278821823
-0.84489661 0.5224638 0.40478131 4278821823
-0.83593667 0.52223486 0.40530208 4278821823
-0.82342768 0.52124864 0.40735519 4278821823
-0.81570011 0.52078617 0.40549737 4278821823
-0.80502164 0.52150106 0.40700251 4278821823
-0.79591411 0.52108663 0.40535745 4278821823
-0.78872168 0.52110124 0.40671879 4278821823
-1.0542965 0.53114855 0.4032473 4278821823
-1.045687 0.53152579 0.40601233 4278821823
-1.0348946 0.53203917 0.409098 4278821823
-1.0246042 0.53015912 0.40675965 4278821823
-1.0181758 0.53043973 0.40639699 4278821823
-1.0065639 0.53085238 0.40242076 4278821823
-0.99219996 0.53009343 0.4035393 4278821823
-0.98908478 0.53006941 0.40012136 4278821823
-0.96098042 0.53062218 0.40820226 4278821823
-0.9555552 0.53058934 0.40900347 4278821823
-0.92388362 0.53016853 0.40721413 4278821823
-0.91642576 0.53041202 0.40839911 4278821823
-0.90608054 0.5308916 0.40915871 4278821823
-0.89925838 0.53194988 0.40055037 4278821823
-0.88102818 0.53195941 0.40657872 4278821823
-0.87620962 0.53144431 0.40857333 4278821823
-0.86333913 0.53224397 0.40838137 4278821823
-0.85919726 0.53123641 0.40527821 4278821823
-1.0822412 0.56745631 0.40374905 4278821823
-1.0784024 0.56908149 0.40411863 4278821823
-1.082384 0.57587826 0.40478012 4278821823
-1.0782022 0.57407755 0.40717748 4278821823
-1.081871 0.58501863 0.40494704 4278821823
-1.0781343 0.58510894 0.40420219 4278821823
-1.0812873 0.59438837 0.40525681 4278821823
-1.0784867 0.59528702 0.40430415 4278821823
-1.0811844 0.6041525 0.40522549 4278821823
-1.0786364 0.60490328 0.40496391 4278821823
-1.0824317 0.616256 0.40423971 4278821823
-1.0786569 0.61435747 0.40317738 4278821823
-1.0834473 0.62501669 0.40395245 4278821823
-1.0785201 0.62481236 0.4055897 4278821823
-1.0817239 0.63582194 0.4035396 4278821823
-1.0780969 0.63655299 0.40483207 4278821823
-1.0820928 0.64481997 0.403853 4278821823
-1.0784339 0.64476335 0.40499309 4278821823
-1.0829997 0.65427387 0.40338159 4278821823
-1.0787383 0.65854079 0.40256587 4278821823
-1.0907247 0.66652167 0.4044933 4278821823
-1.0838401 0.66495967 0.40323055 4278821823
-1.0794078 0.6606819 0.40194058 4278821823
-1.0908546 0.67019594 0.40218794 4278821823
-1.0853101 0.67316657 0.40264255 4278821823
-1.0902771 0.68269295 0.40185735 4278821823
-1.0861751 0.68418092 0.4036355 4278821823
-1.0858778 0.69405502 0.40295252 4278821823
-1.0954806 0.70520002 0.40047836 4278821823
-1.0880617 0.70246994 0.40157557 4278821823
-0.65075833 0.40916049 0.41770339 4278821823
-0.65071523 0.41267347 0.41405803 4278821823
-0.6461001 0.4171544 0.41452205 4278821823
-0.6444428 0.42477074 0.41493443 4278821823
-0.65269798 0.43794164 0.41379631 4278821823
-0.64225435 0.43486372 0.41607261 4278821823
-0.63909614 0.43716139 0.41358772 4278821823
-0.65170389 0.44498137 0.41569185 4278821823
-0.64408314 0.44412902 0.41593513 4278821823
-0.63926858 0.44204175 0.41435057 4278821823
-0.65294951 0.45461342 0.41491967 4278821823
-0.64486647 0.45396501 0.41395292 4278821823
-0.63969266 0.45113042 0.41332328 4278821823
-0.65224391 0.46776652 0.41683638 4278821823
-0.64633739 0.46479917 0.41505229 4278821823
-0.66212058 0.47761777 0.41241577 4278821823
-0.65354121 0.47573894 0.41492108 4278821823
-0.64901513 0.47294807 0.41433415 4278821823
-0.67198801 0.48867142 0.4134247 4278821823
-0.66308248 0.48716995 0.41548383 4278821823
-0.65688014 0.48315856 0.41534457 4278821823
-0.64931333 0.48121274 0.41739702 4278821823
-0.69201946 0.49917865 0.41445193 4278821823
-0.68453091 0.49789861 0.41497129 4278821823
-0.67508525 0.49458629 0.41491345 4278821823
-0.66701835 0.49174777 0.41636497 4278821823
-0.65868193 0.49057287 0.41241953 4278821823
-0.76130229 0.50942695 0.41554981 4278821823
-0.74184871 0.50861406 0.41343427 4278821823
-0.73298019 0.50932723 0.41600671 4278821823
-0.72517091 0.50853652 0.41561273 4278821823
-0.71432781 0.50749409 0.41512623 4278821823
-0.70496786 0.50524557 0.41491821 4278821823
-0.69525683 0.50242043 0.41513079 4278821823
-0.68843299 0.50076461 0.41488829 4278821823
-0.84216988 0.51913601 0.41443866 4278821823
-0.8341068 0.51945555 0.41308504 4278821823
-0.82461405 0.51903129 0.41501856 4278821823
-0.81443727 0.51859367 0.41505209 4278821823
-0.80408007 0.5189293 0.41426778 4278821823
-0.79495168 0.51778996 0.41487777 4278821823
-0.78489804 0.51671058 0.41539291 4278821823
-0.77469087 0.51633865 0.41509297 4278821823
-0.76474798 0.515329 0.41499469 4278821823
-0.75521898 0.5139485 0.4149605 4278821823
-0.74534678 0.51253474 0.41490814 4278821823
-0.73574567 0.51199841 0.41594696 4278821823
-0.72625208 0.51170141 0.41469893 4278821823
-0.71798915 0.51076561 0.41397586 4278821823
-1.1049275 0.52466643 0.41471609 4278821823
-1.0955591 0.52445173 0.41461107 4278821823
-1.0851004 0.52581799 0.41476655 4278821823
-1.0748553 0.52601945 0.41429436 4278821823
-1.0643799 0.52632052 0.41583309 4278821823
-1.055249 0.52617276 0.4153772 4278821823
-1.0466532 0.52561343 0.41404253 4278821823
-1.0341972 0.52690661 0.41520801 4278821823
-1.0247782 0.52696532 0.41329506 4278821823
-1.0146316 0.52724403 0.41480121 4278821823
-1.0049639 0.52692521 0.41505775 4278821823
-0.99457663 0.52727431 0.4149411 4278821823
-0.98478413 0.52767187 0.41404215 4278821823
-0.97607517 0.52741224 0.41441479 4278821823
-0.9641099 0.52759284 0.41579255 4278821823
-0.95441538 0.52759463 0.41422465 4278821823
-0.94514781 0.52693921 0.4150463 4278821823
-0.93490213 0.52667779 0.41499782 4278821823
-0.92526788 0.52648813 0.41507766 4278821823
-0.91550475 0.52677667 0.41536331 4278821823
-0.90475208 0.52747089 0.41548166 4278821823
-0.89519209 0.52657586 0.41516075 4278821823
-0.88498026 0.52488208 0.41488174 4278821823
-0.87516713 0.52431208 0.41487193 4278821823
-0.86419505 0.52552098 0.41470361 4278821823
-0.85521376 0.52431911 0.4147298 4278821823
-0.84520745 0.52317691 0.41488767 4278821823
-0.8344304 0.52321559 0.4152253 4278821823
-0.82514632 0.52125156 0.41528288 4278821823
-0.81615567 0.52139688 0.41497034 4278821823
-0.80610216 0.52199686 0.41536957 4278821823
-0.79527599 0.52134645 0.41612178 4278821823
-0.78717077 0.52055311 0.41616994 4278821823
-1.1044326 0.53112018 0.41445604 4278821823
-1.0758026 0.53016424 0.4179377 4278821823
-1.0692022 0.53040999 0.41860011 4278821823
-1.032657 0.53124219 0.41459167 4278821823
-1.0239247 0.53130144 0.41300625 4278821823
-1.0165802 0.53160864 0.4178046 4278821823
-1.0096985 0.53090173 0.4191038 4278821823
-0.97358513 0.53033417 0.4181304 4278821823
-0.96444219 0.53052855 0.41466707 4278821823
-0.95567381 0.53093004 0.41498667 4278821823
-0.94928634 0.53153163 0.41750827 4278821823
-0.92095321 0.53018427 0.41041821 4278821823
-0.91315734 0.53079903 0.41307655 4278821823
-0.90848422 0.5308615 0.41151953 4278821823
-0.86330307 0.53288817 0.41245022 4278821823
-0.85377473 0.53041363 0.41750982 4278821823
-1.0826854 0.57628334 0.41459531 4278821823
-1.0780445 0.5724653 0.41419694 4278821823
-1.0822914 0.58368438 0.41487843 4278821823
-1.0782269 0.58737808 0.4144271 4278821823
-1.0819099 0.59511507 0.41367257 4278821823
-1.0775888 0.59487903 0.4138397 4278821823
-1.0833167 0.60448062 0.41492924 4278821823
-1.074827 0.60531962 0.41325554 4278821823
-1.0832202 0.61486065 0.41370216 4278821823
-1.0772412 0.61575484 0.41493034 4278821823
-1.0823001 0.62389868 0.41273671 4278821823
-1.0778439 0.62406838 0.41363168 4278821823
-1.0820003 0.63479978 0.41194713 4278821823
-1.0771315 0.63406479 0.41683486 4278821823
-1.0821612 0.64556873 0.41284943 4278821823
-1.0790752 0.64231831 0.41458824 4278821823
-1.0813394 0.65468901 0.41271162 4278821823
-1.0788487 0.65655506 0.4117744 4278821823
-1.0819274 0.66378087 0.41088066 4278821823
-0.64535749 0.41665238 0.42392075 4278821823
-0.63963079 0.41994178 0.42825606 4278821823
-0.64425784 0.42551115 0.42435363 4278821823
-0.63914722 0.42603672 0.42778215 4278821823
-0.65293318 0.43864575 0.42558026 4278821823
-0.64312559 0.4347721 0.42479777 4278821823
-0.63923454 0.43410212 0.42711759 4278821823
-0.65336937 0.4452295 0.42463624 4278821823
-0.64454436 0.44427577 0.42437369 4278821823
-0.63965613 0.44290754 0.42702985 4278821823
-0.65206915 0.45712209 0.42512178 4278821823
-0.64449412 0.4552319 0.42496276 4278821823
-0.65174145 0.46548423 0.42431831 4278821823
-0.64735961 0.46441185 0.4250271 4278821823
-0.66069418 0.47845763 0.42520666 4278821823
-0.65321589 0.47526562 0.42503545 4278821823
-0.64847112 0.47301602 0.42471564 4278821823
-0.67062652 0.48954552 0.4253363 4278821823
-0.66274673 0.48773485 0.42510682 4278821823
-0.65675056 0.4838863 0.42506945 4278821823
-0.64887768 0.48191664 0.42419365 4278821823
-0.69174778 0.49847132 0.42166501 4278821823
-0.6833216 0.49861914 0.42463461 4278821823
-0.67483485 0.49545261 0.42501557 4278821823
-0.66660643 0.49182913 0.42500874 4278821823
-0.65968347 0.49136722 0.42463022 4278821823
-0.74226952 0.50945091 0.42855847 4278821823
-0.73335052 0.50931382 0.42543206 4278821823
-0.72453499 0.50865781 0.42463821 4278821823
-0.71478415 0.50785214 0.42484021 4278821823
-0.70526767 0.50562423 0.42496395 4278821823
-0.69539595 0.50292319 0.42519659 4278821823
-0.68609846 0.50143492 0.42642191 4278821823
-0.67792869 0.50022799 0.42695034 4278821823
-0.84016967 0.51926863 0.42059582 4278821823
-0.82160521 0.51867652 0.42529851 4278821823
-0.81489974 0.5189563 0.42518485 4278821823
-0.8033573 0.51900464 0.42430303 4278821823
-0.79539335 0.51812989 0.4242425 4278821823
-0.7844165 0.51731968 0.42543396 4278821823
-0.77526259 0.51657331 0.42457223 4278821823
-0.76470912 0.51556873 0.42513359 4278821823
-0.75494421 0.51418835 0.42540047 4278821823
-0.74506652 0.51311702 0.42462546 4278821823
-0.73531467 0.51175195 0.42454657 4278821823
-0.72686636 0.51063967 0.42531535 4278821823
-0.71413386 0.51066208 0.425605 4278821823
-0.70918953 0.51075947 0.42572942 4278821823
-1.0932717 0.5260669 0.42438519 4278821823
-1.0861895 0.52604699 0.42373908 4278821823
-1.0746526 0.52693307 0.42464411 4278821823
-1.0652697 0.52656978 0.42506617 4278821823
-1.055625 0.52594006 0.42522308 4278821823
-1.0453514 0.52683043 0.42516017 4278821823
-1.0351737 0.52727985 0.42525148 4278821823
-1.0236824 0.52805984 0.42488429 4278821823
-1.0149925 0.52795303 0.42538661 4278821823
-1.0043236 0.52741855 0.42365 4278821823
-0.9950133 0.52796048 0.42526153 4278821823
-0.98505336 0.52800256 0.42455935 4278821823
-0.97509408 0.52755886 0.42593536 4278821823
-0.96429986 0.52788299 0.42560026 4278821823
-0.95496827 0.5281446 0.42592278 4278821823
-0.94468927 0.52799278 0.42542562 4278821823
-0.93497378 0.52726299 0.42440978 4278821823
-0.92504174 0.52625483 0.42515984 4278821823
-0.91513062 0.52645952 0.42492273 4278821823
-0.90457988 0.52642447 0.42514968 4278821823
-0.89488858 0.52558416 0.42485651 4278821823
-0.88574576 0.52464622 0.42471182 4278821823
-0.87515408 0.52492052 0.42545971 4278821823
-0.86512661 0.52480567 0.42526141 4278821823
-0.85366666 0.52552599 0.42381763 4278821823
-0.84492421 0.52428579 0.42445272 4278821823
-0.83489096 0.52285117 0.42505333 4278821823
-0.82525164 0.52175933 0.42519653 4278821823
-0.81656426 0.52174729 0.42494667 4278821823
-0.8053931 0.52181947 0.42446333 4278821823
-0.79566866 0.52109689 0.4249298 4278821823
-0.78684509 0.52094215 0.42593962 4278821823
-0.76784718 0.52028239 0.42902988 4278821823
-1.081462 0.53020793 0.42414707 4278821823
-1.0759789 0.53124565 0.42688549 4278821823
-1.0365964 0.53138638 0.42089099 4278821823
-1.0238379 0.53132939 0.42736903 4278821823
-1.0130825 0.53057426 0.42453712 4278821823
-1.0048342 0.53127915 0.42172575 4278821823
-0.98160106 0.53036422 0.42845488 4278821823
-0.97473615 0.5303998 0.4247773 4278821823
-0.96395576 0.53133833 0.4225167 4278821823
-0.95470542 0.5313645 0.42258614 4278821823
-0.94524866 0.53102624 0.42506701 4278821823
-0.92343199 0.53067881 0.42741185 4278821823
-0.91809916 0.53074121 0.42096281 4278821823
-1.0837133 0.58413929 0.42383602 4278821823
-1.081465 0.59323853 0.42347023 4278821823
-1.0780548 0.59540331 0.42366791 4278821823
-1.0803752 0.60947222 0.42248598 4278821823
-1.0780879 0.6047653 0.42270488 4278821823
-1.0813915 0.61264288 0.42166227 4278821823
-1.0788928 0.61627388 0.42070353 4278821823
-1.0772197 0.62392741 0.42016113 4278821823
-0.65054548 0.41635907 0.43901816 4278821823
-0.64570916 0.41658726 0.43605489 4278821823
-0.63927615 0.41683435 0.43469954 4278821823
-0.64487165 0.42566538 0.43460083 4278821823
-0.63458228 0.42350447 0.43283325 4278821823
-0.65499473 0.43753722 0.4348582 4278821823
-0.64329529 0.43507585 0.43481576 4278821823
-0.65332484 0.44557855 0.43456173 4278821823
-0.64308852 0.44510713 0.43461123 4278821823
-0.6389299 0.4456203 0.43909407 4278821823
-0.65207666 0.45548663 0.43513146 4278821823
-0.64565277 0.45380169 0.43609792 4278821823
-0.65161365 0.46703005 0.43418786 4278821823
-0.6469295 0.46459794 0.43517816 4278821823
-0.66153699 0.47878113 0.43094119 4278821823
-0.65302008 0.47584006 0.43492192 4278821823
-0.64867347 0.47325954 0.43537176 4278821823
-0.66295195 0.48794401 0.43495128 4278821823
-0.65624869 0.48407048 0.43565533 4278821823
-0.64920485 0.48091787 0.43457729 4278821823
-0.68290377 0.49846822 0.43411222 4278821823
-0.67486721 0.49540359 0.43512666 4278821823
-0.6664505 0.4921962 0.43472689 4278821823
-0.65954685 0.49109215 0.43966103 4278821823
-0.74256784 0.50959432 0.4329145 4278821823
-0.73590088 0.5090487 0.43388078 4278821823
-0.72358257 0.50923258 0.43463951 4278821823
-0.71485388 0.50845617 0.43511111 4278821823
-0.70534778 0.50632507 0.43488654 4278821823
-0.69480562 0.50377136 0.43536967 4278821823
-0.68662089 0.50140887 0.43504912 4278821823
-0.67906183 0.50108904 0.43647555 4278821823
-0.83177781 0.51849705 0.43206397 4278821823
-0.82235092 0.51934165 0.43648854 4278821823
-0.8150472 0.51904744 0.43511364 4278821823
-0.80321223 0.51827079 0.43647456 4278821823
-0.79409295 0.51802582 0.43607906 4278821823
-0.78512299 0.51746404 0.43496948 4278821823
-0.77457422 0.5171994 0.43494046 4278821823
-0.76521409 0.51616126 0.43478769 4278821823
-0.75495005 0.51493394 0.43505609 4278821823
-0.74543959 0.5135504 0.43514043 4278821823
-0.73503947 0.51193273 0.4352842 4278821823
-0.72624379 0.51129454 0.43475956 4278821823
-0.71718073 0.51062202 0.43627203 4278821823
-0.70856696 0.51009697 0.43921107 4278821823
-1.0655417 0.52755564 0.4340772 4278821823
-1.0553961 0.52691734 0.43459806 4278821823
-1.0442567 0.52680862 0.43629825 4278821823
-1.0350523 0.52672464 0.43489292 4278821823
-1.0242791 0.52763355 0.43501276 4278821823
-1.0148238 0.52764368 0.43438765 4278821823
-1.0048258 0.52749503 0.43501419 4278821823
-0.99471295 0.52715397 0.43473911 4278821823
-0.98518735 0.5266161 0.43503278 4278821823
-0.9756462 0.52679539 0.43519592 4278821823
-0.96574086 0.52810788 0.43368053 4278821823
-0.95429897 0.5285781 0.43538296 4278821823
-0.94511884 0.52764297 0.43466607 4278821823
-0.9345088 0.52742845 0.43499717 4278821823
-0.92465013 0.52687126 0.43514594 4278821823
-0.91492015 0.52658111 0.4351314 4278821823
-0.90547973 0.5258376 0.43539199 4278821823
-0.89501208 0.52528858 0.43476143 4278821823
-0.88458157 0.52527958 0.43484786 4278821823
-0.87496465 0.52506405 0.43514836 4278821823
-0.86469221 0.52491313 0.43534747 4278821823
-0.85509068 0.52421874 0.43493775 4278821823
-0.8447606 0.52355897 0.43542695 4278821823
-0.83501601 0.52273738 0.43512678 4278821823
-0.82485718 0.52267051 0.43484351 4278821823
-0.8153944 0.52246642 0.4332265 4278821823
-0.8051194 0.52218091 0.43486738 4278821823
-0.79646647 0.52155399 0.43463695 4278821823
-0.78700185 0.52134407 0.43340427 4278821823
-1.0730433 0.5307532 0.43070802 4278821823
-1.0574231 0.53116786 0.43588993 4278821823
-1.0307226 0.53001416 0.43147767 4278821823
-0.98325068 0.53034359 0.43007505 4278821823
-0.97424722 0.5306378 0.4322525 4278821823
-0.96408623 0.53131819 0.4350957 4278821823
-0.95609999 0.53186244 0.43761027 4278821823
-0.93195814 0.53055173 0.43698692 4278821823
-0.92506921 0.53067005 0.4323512 4278821823
-0.65245038 0.40792066 0.44360939 4278821823
-0.65085208 0.41554743 0.44679523 4278821823
-0.64827013 0.41529882 0.4451592 4278821823
-0.65070403 0.42059004 0.44847804 4278821823
-0.64597434 0.42578411 0.44491661 4278821823
-0.65479261 0.43698981 0.44522631 4278821823
-0.64393282 0.43481517 0.44475123 4278821823
-0.63948274 0.43839905 0.44396114 4278821823
-0.65249252 0.44574159 0.44540009 4278821823
-0.64310372 0.44500855 0.44514355 4278821823
-0.63926047 0.4457798 0.44444346 4278821823
-0.65205109 0.45585692 0.44525158 4278821823
-0.64527786 0.45465809 0.44505048 4278821823
-0.63997674 0.45053783 0.44172329 4278821823
-0.65173578 0.46681085 0.44477692 4278821823
-0.64545107 0.46486965 0.44522288 4278821823
-0.66055828 0.47805282 0.44640937 4278821823
-0.65311038 0.47621909 0.44584256 4278821823
-0.64753586 0.47429034 0.44484052 4278821823
-0.67121112 0.48952687 0.44158673 4278821823
-0.66255462 0.48835999 0.44544327 4278821823
-0.65624779 0.4848524 0.44527185 4278821823
-0.64927304 0.482077 0.44378555 4278821823
-0.68315321 0.49859637 0.44524279 4278821823
-0.67471254 0.49602991 0.44495177 4278821823
-0.66570556 0.49255955 0.44553629 4278821823
-0.65858382 0.49099207 0.4454999 4278821823
-0.73219472 0.50887269 0.44193503 4278821823
-0.72292733 0.50944465 0.44285926 4278821823
-0.71528423 0.50785142 0.44430518 4278821823
-0.70473552 0.50657403 0.44515231 4278821823
-0.69497067 0.50391155 0.44486284 4278821823
-0.68669319 0.50179398 0.44515306 4278821823
-0.6781345 0.50060475 0.44389063 4278821823
-0.82350802 0.51947767 0.44469199 4278821823
-0.81602031 0.51957422 0.44267401 4278821823
-0.80515856 0.51832336 0.44343913 4278821823
-0.7937324 0.51831502 0.44319814 4278821823
-0.78444004 0.51853883 0.44445729 4278821823
-0.77510405 0.51812899 0.4443233 4278821823
-0.76486945 0.5173068 0.44466835 4278821823
-0.75476378 0.51594698 0.44511652 4278821823
-0.74497646 0.51396382 0.44500434 4278821823
-0.73543239 0.51259267 0.44505665 4278821823
-0.72539616 0.51188612 0.44531131 4278821823
-0.71813774 0.51111609 0.44480723 4278821823
-0.70889664 0.51084298 0.4480803 4278821823
-1.0142094 0.52835238 0.44282168 4278821823
-1.0036935 0.52854276 0.44477451 4278821823
-0.99511278 0.52835023 0.4449406 4278821823
-0.98489165 0.52837878 0.44486931 4278821823
-0.97510219 0.52735305 0.4448671 4278821823
-0.96421897 0.52771986 0.44535965 4278821823
-0.95397609 0.52795476 0.44357982 4278821823
-0.94571257 0.52677226 0.44435441 4278821823
-0.93417263 0.52741796 0.44452277 4278821823
-0.92421836 0.52757376 0.44395909 4278821823
-0.9145987 0.52716142 0.44505492 4278821823
-0.90527171 0.52624333 0.44489869 4278821823
-0.89490467 0.52601439 0.44531465 4278821823
-0.88499087 0.52549464 0.44505408 4278821823
-0.87541467 0.52452266 0.44512573 4278821823
-0.86473656 0.52436119 0.44456601 4278821823
-0.85470676 0.52399331 0.4450568 4278821823
-0.84537488 0.52338243 0.44490647 4278821823
-0.83489799 0.52288336 0.4453845 4278821823
-0.82663184 0.52161169 0.44458279 4278821823
-0.81535274 0.52080995 0.44722104 4278821823
-0.80551338 0.52181333 0.44522363 4278821823
-0.7954722 0.52240092 0.44625124 4278821823
-0.78548861 0.52179414 0.44626281 4278821823
-0.77606487 0.52064323 0.44736853 4278821823
-0.7661224 0.5204941 0.44707465 4278821823
