# .PCD v0.7 - Point Cloud Data file format
VERSION 0.7
FIELDS x y z rgba
SIZE 4 4 4 4
TYPE F F F U
COUNT 1 1 1 1
WIDTH 654
HEIGHT 1
VIEWPOINT 0 0 0 1 0 0 0
POINTS 654
DATA ascii
-1.1475472 0.82501966 0.17901082 4284813669
-1.1531676 0.83567691 0.17803784 4284813669
-1.1473627 0.83029485 0.17873034 4284813669
-1.1319665 0.79531175 0.18655832 4284813669
-1.1422566 0.80678141 0.18232602 4284813669
-1.1343131 0.80355811 0.18653788 4284813669
-1.1419618 0.81546342 0.18212783 4284813669
-1.1361314 0.81622124 0.18818313 4284813669
-1.1447088 0.82573575 0.18467875 4284813669
-1.1359011 0.82321978 0.18824826 4284813669
-1.153257 0.83817154 0.18321799 4284813669
-1.1474632 0.83406436 0.1855212 4284813669
-1.1601223 0.84760648 0.18835729 4284813669
-1.1531945 0.84517843 0.1883353 4284813669
-1.1473255 0.84141785 0.18872036 4284813669
-1.1720017 0.85164404 0.18836069 4284813669
-1.1630435 0.85064256 0.1889177 4284813669
-1.131037 0.79598582 0.19540131 4284813669
-1.1425725 0.80676931 0.19181021 4284813669
-1.1342179 0.80459028 0.19507739 4284813669
-1.1354444 0.81531519 0.19440636 4284813669
-1.1443774 0.82740194 0.1944401 4284813669
-1.1327982 0.8253516 0.19741561 4284813669
-1.129927 0.82969815 0.19569865 4284813669
-1.1477636 0.83518183 0.19566531 4284813669
-1.1604077 0.84621739 0.19554918 4284813669
-1.1534587 0.84346789 0.19457386 4284813669
-1.1475329 0.84177566 0.19531469 4284813669
-1.1721283 0.85186249 0.19238606 4284813669
-1.1635524 0.85192895 0.19546905 4284813669
-1.131336 0.79597437 0.2043786 4284813669
-1.1330208 0.80640256 0.20524424 4284813669
-1.1427422 0.81820226 0.20832543 4284813669
-1.1357075 0.8152917 0.20461197 4284813669
-1.1448187 0.82565433 0.20596385 4284813669
-1.1348883 0.8232494 0.20297845 4284813669
-1.1539159 0.83743608 0.2022945 4284813669
-1.1480894 0.8353622 0.20563589 4284813669
-1.1624069 0.84717453 0.20501624 4284813669
-1.1538587 0.84201813 0.20514998 4284813669
-1.1725457 0.85400528 0.2070743 4284813669
-1.1664079 0.85374671 0.20287588 4284813669
-1.1316441 0.7967574 0.21442981 4284813669
-1.1313559 0.80553156 0.21452306 4284813669
-1.1430019 0.81753653 0.2154735 4284813669
-1.134938 0.81440651 0.21498989 4284813669
-1.1455616 0.82574219 0.21507847 4284813669
-1.1483905 0.83486509 0.21419959 4284813669
-1.1618372 0.84797519 0.21448639 4284813669
-1.1541471 0.84345198 0.21525656 4284813669
-1.1482476 0.84021169 0.21523799 4284813669
-1.1651607 0.85467571 0.21555743 4284813669
-1.166618 0.8604849 0.21591902 4284813669
-1.1319691 0.79706669 0.2245062 4284813669
-1.1317221 0.80475223 0.2247552 4284813669
-1.1432683 0.8174389 0.22338167 4284813669
-1.1360617 0.81303 0.2253941 4284813669
-1.1436938 0.82766873 0.22381791 4284813669
-1.1371181 0.82427955 0.22590175 4284813669
-1.1487676 0.83439696 0.22507043 4284813669
-1.1613363 0.84970093 0.22695008 4284813669
-1.1544311 0.84628218 0.22661704 4284813669
-1.1484689 0.842691 0.22436489 4284813669
-1.173268 0.85382867 0.22861421 4284813669
-1.1617641 0.85375667 0.22379787 4284813669
-1.1541193 0.85182899 0.22278029 4284813669
-1.1323453 0.79658592 0.23533702 4284813669
-1.1339533 0.80471754 0.23477264 4284813669
-1.1364172 0.81553942 0.23479381 4284813669
-1.1440487 0.82723504 0.23405451 4284813669
-1.1374297 0.82391578 0.23490587 4284813669
-1.1484542 0.83420104 0.23551491 4284813669
-1.1757487 0.84920859 0.23838931 4284813669
-1.1625488 0.84758866 0.2354954 4284813669
-1.1547722 0.84453022 0.2351221 4284813669
-1.1488699 0.84128535 0.23502105 4284813669
-1.1865637 0.85263753 0.2358838 4284813669
-1.176532 0.85228091 0.23491125 4284813669
-1.162316 0.85242957 0.2333298 4284813669
-1.1326729 0.79715145 0.24575602 4284813669
-1.1327779 0.80482143 0.24528332 4284813669
-1.1324133 0.81524187 0.24472857 4284813669
-1.1447829 0.82677227 0.24540474 4284813669
-1.1360086 0.8230468 0.24549103 4284813669
-1.1552907 0.83980799 0.2459987 4284813669
-1.148713 0.83493096 0.24520597 4284813669
-1.1739621 0.84933567 0.24500096 4284813669
-1.166092 0.84561652 0.24545482 4284813669
-1.1550977 0.84321958 0.24360365 4284813669
-1.1490773 0.84164327 0.2416154 4284813669
-1.1800828 0.85026759 0.24936214 4284813669
-1.1781926 0.85352516 0.24503799 4284813669
-1.1329597 0.79764622 0.25487265 4284813669
-1.134136 0.80537236 0.25545919 4284813669
-1.1444039 0.81828427 0.2583732 4284813669
-1.135181 0.81516445 0.25487497 4284813669
-1.150108 0.82664096 0.25762385 4284813669
-1.1459335 0.82463908 0.25426996 4284813669
-1.1381457 0.8201589 0.25268167 4284813669
-1.1558926 0.83522958 0.25952405 4284813669
-1.1497207 0.83543885 0.25476506 4284813669
-1.174238 0.84810436 0.25206381 4284813669
-1.1666049 0.84535509 0.25598544 4284813669
-1.1555248 0.84141541 0.25464135 4284813669
-1.1801355 0.85492963 0.25559989 4284813669
-1.1753585 0.85380775 0.25533625 4284813669
-1.168337 0.85211593 0.2592485 4284813669
-1.1356581 0.79802078 0.26413924 4284813669
-1.1448954 0.80799174 0.26287195 4284813669
-1.1386586 0.8045224 0.26538655 4284813669
-1.1506131 0.8191219 0.26529837 4284813669
-1.1447483 0.81470078 0.26514956 4284813669
-1.1387357 0.81285638 0.26312593 4284813669
-1.1511388 0.82544428 0.26484692 4284813669
-1.1552413 0.83450168 0.26501042 4284813669
-1.1647403 0.84529179 0.26469332 4284813669
-1.1559156 0.84088612 0.26586422 4284813669
-1.1743653 0.85572207 0.2635006 4284813669
-1.1685358 0.85407817 0.267185 4284813669
-1.1683928 0.86071336 0.2695125 4284813669
-1.1381177 0.79695845 0.27382186 4284813669
-1.1394398 0.8043642 0.27581945 4284813669
-1.1509449 0.81969452 0.27584931 4284813669
-1.1450111 0.81689489 0.27524087 4284813669
-1.1390761 0.81413722 0.27464405 4284813669
-1.1507603 0.82496959 0.27556884 4284813669
-1.1542299 0.83390135 0.27474004 4284813669
-1.1630284 0.84632504 0.27445745 4284813669
-1.1562049 0.84208733 0.27576181 4284813669
-1.1678618 0.85430586 0.27493396 4284813669
-1.168561 0.8610034 0.27485764 4284813669
-1.1400481 0.79570645 0.28546134 4284813669
-1.1389238 0.79728484 0.28333309 4284813669
-1.1377387 0.80475783 0.2852636 4284813669
-1.1452762 0.81839657 0.28471047 4284813669
-1.1390001 0.81386501 0.28597382 4284813669
-1.1510991 0.82447839 0.28526071 4284813669
-1.1514604 0.83489847 0.28528759 4284813669
-1.1632389 0.84733933 0.28179529 4284813669
-1.1541702 0.8446911 0.2849035 4284813669
-1.1810809 0.85770375 0.28679955 4284813669
-1.1750251 0.85733438 0.28494534 4284813669
-1.1668918 0.85306978 0.28447273 4284813669
-1.1563458 0.85005379 0.28795606 4284813669
-1.1687291 0.86129355 0.28020278 4284813669
-1.1342753 0.79853511 0.29531544 4284813669
-1.140002 0.80949426 0.29784471 4284813669
-1.1346955 0.80551702 0.29485276 4284813669
-1.1516826 0.81747115 0.29580766 4284813669
-1.1456993 0.81614244 0.29517943 4284813669
-1.138913 0.81300002 0.29440543 4284813669
-1.1521541 0.82457328 0.29450396 4284813669
-1.1454368 0.82006627 0.29120749 4284813669
-1.1552076 0.83517659 0.29531077 4284813669
-1.163704 0.84673089 0.29517391 4284813669
-1.1562368 0.84360391 0.29465201 4284813669
-1.1753074 0.85694069 0.29304022 4284813669
-1.1675019 0.8531909 0.29541603 4284813669
-1.1564292 0.85019755 0.2906048 4284813669
-1.1752844 0.86015314 0.29556072 4284813669
-1.134603 0.79910052 0.30573443 4284813669
-1.1402489 0.80992013 0.30569193 4284813669
-1.1343755 0.80561197 0.30538821 4284813669
-1.1519966 0.81711417 0.30489644 4284813669
-1.1430918 0.81513625 0.30608052 4284813669
-1.1370465 0.81307143 0.30285421 4284813669
-1.1517192 0.82522559 0.30465412 4284813669
-1.1558408 0.83438492 0.30528638 4284813669
-1.170084 0.84804577 0.30770999 4284813669
-1.1640437 0.84590578 0.30456015 4284813669
-1.1571825 0.84213555 0.30520085 4284813669
-1.175696 0.85679829 0.30458194 4284813669
-1.166518 0.85347879 0.30442569 4284813669
-1.13489 0.79959536 0.31485105 4284813669
-1.1407999 0.80601722 0.31836009 4284813669
-1.1347067 0.80505407 0.31479824 4284813669
-1.1523705 0.81760943 0.31663248 4284813669
-1.1440346 0.81345242 0.31468531 4284813669
-1.1344389 0.81124526 0.31292549 4284813669
-1.1520511 0.82579815 0.31520507 4284813669
-1.1547419 0.83493435 0.31492785 4284813669
-1.1701804 0.84868455 0.3112497 4284813669
-1.1643711 0.84618843 0.31468827 4284813669
-1.1575156 0.84271055 0.31579581 4284813669
-1.1718044 0.85575026 0.31552833 4284813669
-1.1656195 0.85502934 0.31590575 4284813669
-1.143756 0.79754531 0.32654193 4284813669
-1.1350538 0.79987806 0.32006052 4284813669
-1.1442242 0.80481821 0.32506904 4284813669
-1.1527106 0.81574893 0.32499811 4284813669
-1.146794 0.81182444 0.32378447 4284813669
-1.1524292 0.82505196 0.32582614 4284813669
-1.1559983 0.8342123 0.32489818 4284813669
-1.170593 0.84750724 0.32248014 4284813669
-1.16476 0.8457306 0.32592347 4284813669
-1.1577705 0.84288275 0.32362929 4284813669
-1.1737906 0.85412097 0.32488835 4284813669
-1.1476731 0.79746592 0.33587545 4284813669
-1.1533747 0.8061071 0.33533642 4284813669
-1.1474481 0.80264777 0.33428279 4284813669
-1.1530234 0.81532043 0.33397439 4284813669
-1.1532271 0.82459694 0.33546847 4284813669
-1.1565223 0.83497977 0.33523694 4284813669
-1.1711396 0.84845006 0.33985186 4284813669
-1.165053 0.84623623 0.33523896 4284813669
-1.1581283 0.84329939 0.33480188 4284813669
-1.1755784 0.85462618 0.33500344 4284813669
-1.1649133 0.85022831 0.33502671 4284813669
-1.1539742 0.79974985 0.34701166 4284813669
-1.1479622 0.79796481 0.34506908 4284813669
-1.1537482 0.8049534 0.34541228 4284813669
-1.1477418 0.80176216 0.34223285 4284813669
-1.1534252 0.81418496 0.34492144 4284813669
-1.1543027 0.82533121 0.34441257 4284813669
-1.1587217 0.8358978 0.34525171 4284813669
-1.1763526 0.8484332 0.34607258 4284813669
-1.1654191 0.84545708 0.34547207 4284813669
-1.1584647 0.84294367 0.34456089 4284813669
-1.1830996 0.85737723 0.34716919 4284813669
-1.1766462 0.85470974 0.34496072 4284813669
-1.1768978 0.86009127 0.34400761 4284813669
-1.1482514 0.79846382 0.35426265 4284813669
-1.1540539 0.80641323 0.35606301 4284813669
-1.1481018 0.80349702 0.35478535 4284813669
-1.1537572 0.81475765 0.35547239 4284813669
-1.1550374 0.82542109 0.35445309 4284813669
-1.1721487 0.83743954 0.35919923 4284813669
-1.1660421 0.83645284 0.35520655 4284813669
-1.1578031 0.83321786 0.35508725 4284813669
-1.175279 0.84505844 0.35468832 4284813669
-1.1658275 0.84122306 0.35352296 4284813669
-1.1833963 0.857889 0.35660017 4284813669
-1.1774545 0.85441256 0.35507476 4284813669
-1.1832848 0.86150599 0.35685825 4284813669
-1.148628 0.79772073 0.36483949 4284813669
-1.154406 0.80429059 0.36453182 4284813669
-1.1485361 0.80034733 0.36469984 4284813669
-1.1540567 0.81538212 0.36510494 4284813669
-1.1537021 0.82584995 0.36489719 4284813669
-1.1723056 0.8385604 0.36503628 4284813669
-1.1663725 0.8369422 0.36562878 4284813669
-1.1585524 0.8329044 0.36495787 4284813669
-1.1754885 0.84465575 0.36523429 4284813669
-1.1837263 0.85691094 0.36554736 4284813669
-1.1778145 0.85256755 0.3640542 4284813669
-1.183539 0.86194468 0.36494195 4284813669
-1.1549838 0.79729658 0.37491828 4284813669
-1.154707 0.8052094 0.3744975 4284813669
-1.154397 0.81469649 0.37465444 4284813669
-1.154053 0.82610554 0.37570119 4284813669
-1.1480442 0.82317227 0.37270632 4284813669
-1.1726508 0.83901417 0.37586728 4284813669
-1.1655341 0.83682203 0.37542161 4284813669
-1.1576529 0.83380461 0.37477276 4284813669
-1.1748224 0.84582657 0.37572572 4284813669
-1.203158 0.85636723 0.37734908 4284813669
-1.193486 0.85672772 0.37586346 4284813669
-1.1840625 0.85554647 0.37428996 4284813669
-1.1781857 0.85215139 0.37480313 4284813669
-1.1908646 0.86005777 0.37260735 4284813669
-1.1837085 0.86223716 0.37033108 4284813669
-1.1552327 0.79772609 0.38283151 4284813669
-1.1493716 0.79900372 0.38848019 4284813669
-1.1549656 0.80625522 0.38332275 4284813669
-1.1491454 0.80453181 0.38719839 4284813669
-1.1545914 0.81479877 0.38060105 4284813669
-1.148738 0.81563419 0.38603929 4284813669
-1.1543146 0.82271153 0.38018036 4284813669
-1.1484381 0.82468736 0.38606083 4284813669
-1.1729077 0.83804059 0.38261977 4284813669
-1.1632482 0.8358832 0.38556412 4284813669
-1.1558317 0.83331501 0.3847824 4284813669
-1.1482277 0.83045149 0.38549092 4284813669
-1.1750255 0.84461242 0.38512796 4284813669
-1.2033727 0.85673761 0.38417256 4284813669
-1.1944213 0.85565722 0.38485232 4284813669
-1.1845046 0.85361111 0.3856526 4284813669
-1.1785395 0.85154223 0.38483182 4284813669
-1.1495782 0.7993601 0.39504704 4284813669
-1.1552463 0.80613983 0.39164287 4284813669
-1.1480438 0.80542779 0.39510319 4284813669
-1.1550801 0.81843847 0.39892501 4284813669
-1.1491063 0.81446087 0.39593762 4284813669
-1.1547664 0.82488918 0.3959367 4284813669
-1.1487099 0.82292813 0.39247677 4284813669
-1.1734565 0.83827901 0.39935881 4284813669
-1.1618788 0.83761424 0.39506897 4284813669
-1.1544039 0.83349305 0.39362746 4284813669
-1.1483929 0.83073658 0.39074442 4284813669
-1.185037 0.8473869 0.39544171 4284813669
-1.1766336 0.84405285 0.39441332 4284813669
-1.1649477 0.84013295 0.39621282 4284813669
-1.1937265 0.85557884 0.39398739 4284813669
-1.1848606 0.85279655 0.39554015 4284813669
-1.1787083 0.85183352 0.39019895 4284813669
-1.149826 0.79978782 0.40292725 4284813669
-1.1464 0.80539495 0.40402472 4284813669
-1.1553816 0.81736076 0.40691838 4284813669
-1.1485147 0.81341302 0.40489081 4284813669
-1.1609423 0.82877618 0.40490571 4284813669
-1.1550648 0.82480472 0.40482202 4284813669
-1.1736246 0.8385691 0.40470397 4284813669
-1.1620317 0.8353439 0.40471381 4284813669
-1.1774429 0.84466958 0.40519682 4284813669
-1.1918961 0.85896683 0.40253267 4284813669
-1.1850507 0.85598201 0.40444291 4284813669
-1.1792321 0.8517887 0.40590063 4284813669
-1.1919291 0.86189449 0.40644979 4284813669
-1.1849471 0.86151695 0.40685096 4284813669
-1.1501473 0.80312717 0.4159213 4284813669
-1.1499146 0.80643922 0.41223279 4284813669
-1.1557113 0.8157137 0.4151825 4284813669
-1.1497722 0.8117637 0.41326681 4284813669
-1.1613446 0.82658166 0.41481301 4284813669
-1.1554794 0.82378882 0.41627622 4284813669
-1.1739879 0.83742458 0.41448084 4284813669
-1.1659498 0.83281183 0.41464108 4284813669
-1.1855456 0.84826428 0.41160911 4284813669
-1.1782792 0.84427595 0.41489735 4284813669
-1.1853724 0.85601717 0.41414496 4284813669
-1.1795914 0.85254413 0.41745874 4284813669
-1.1920568 0.86211491 0.4105109 4284813669
-1.1851522 0.86391169 0.41540974 4284813669
-1.1793084 0.86282754 0.41921884 4284813669
-1.1503493 0.80486816 0.42373168 4284813669
-1.1444821 0.80612993 0.42918825 4284813669
-1.1547767 0.8147096 0.42410243 4284813669
-1.1442991 0.81136119 0.42891008 4284813669
-1.1557521 0.82463199 0.42531377 4284813669
-1.1742131 0.83958441 0.42341197 4284813669
-1.1637255 0.83541924 0.4249903 4284813669
-1.1555591 0.83115131 0.4260253 4284813669
-1.1800499 0.84418935 0.42290112 4284813669
-1.1762453 0.8452301 0.42447597 4284813669
-1.1648135 0.84187901 0.42903671 4284813669
-1.185685 0.85755223 0.42507735 4284813669
-1.1791719 0.85307723 0.425446 4284813669
-1.1925583 0.86585063 0.42931873 4284813669
-1.1854749 0.86476499 0.42596313 4284813669
-1.1793928 0.86297321 0.42190239 4284813669
-1.1508038 0.80565226 0.43817878 4284813669
-1.1446055 0.8063429 0.43311182 4284813669
-1.1530124 0.81504101 0.43494824 4284813669
-1.1444225 0.8115741 0.4328337 4284813669
-1.1560618 0.82432747 0.43432418 4284813669
-1.1617008 0.83656985 0.43549851 4284813669
-1.1558003 0.83180052 0.43392682 4284813669
-1.1804156 0.84908831 0.4387885 4284813669
-1.1743422 0.84736353 0.43505958 4284813669
-1.1654552 0.84415257 0.43555489 4284813669
-1.1814412 0.85503858 0.43543372 4284813669
-1.1770421 0.85465348 0.43321982 4284813669
-1.1926908 0.86464393 0.43209809 4284813669
-1.1858594 0.86273402 0.43549865 4284813669
-1.1573117 0.79991454 0.44752628 4284813669
-1.1538107 0.8057006 0.44528878 4284813669
-1.1567628 0.81434971 0.44543609 4284813669
-1.1623737 0.82675219 0.44592157 4284813669
-1.1564242 0.82327461 0.44416791 4284813669
-1.1624978 0.83553487 0.44437906 4284813669
-1.1560385 0.83127922 0.44056791 4284813669
-1.1805876 0.84843659 0.44330868 4284813669
-1.1747769 0.84570909 0.4464778 4284813669
-1.1676337 0.84231871 0.4440335 4284813669
-1.1818253 0.85551244 0.4424381 4284813669
-1.1744976 0.85566068 0.44801986 4284813669
-1.1961089 0.86432195 0.44424757 4284813669
-1.1836654 0.86307526 0.44511795 4284813669
-1.1524707 0.80455852 0.45437184 4284813669
-1.1535258 0.81535381 0.45534769 4284813669
-1.1567256 0.82547277 0.45542607 4284813669
-1.1621697 0.83763403 0.45065576 4284813669
-1.1563852 0.83510453 0.45481226 4284813669
-1.1751192 0.84681481 0.45787117 4284813669
-1.1663687 0.84427935 0.45388064 4284813669
-1.1562208 0.84166211 0.45641702 4284813669
-1.1747366 0.85542911 0.45497653 4284813669
-1.1688253 0.8513335 0.45374963 4284813669
-1.1814598 0.86446434 0.45544133 4284813669
-1.1745638 0.86115885 0.4555003 4284813669
-1.1516759 0.80576468 0.46451604 4284813669
-1.1513717 0.81470913 0.46430391 4284813669
-1.1558578 0.8249318 0.46491006 4284813669
-1.1567729 0.83454365 0.4659031 4284813669
-1.1753134 0.84686673 0.46376505 4284813669
-1.1639599 0.84526581 0.46528101 4284813669
-1.1565039 0.84187078 0.4651356 4284813669
-1.1809782 0.85859489 0.46519616 4284813669
-1.1750687 0.85497165 0.46450374 4284813669
-1.1692858 0.85212797 0.46838826 4284813669
-1.1819731 0.86294079 0.46333018 4284813669
-1.1748477 0.8647657 0.46763784 4284813669
-1.1538739 0.8060559 0.47532791 4284813669
-1.1520729 0.81562644 0.47426257 4284813669
-1.1536849 0.82427746 0.47394341 4284813669
-1.1630862 0.83921528 0.47979191 4284813669
-1.1548342 0.83482265 0.47561488 4284813669
-1.1756946 0.84667414 0.47503242 4284813669
-1.1657737 0.84478855 0.47586685 4284813669
-1.1567966 0.84167671 0.47374332 4284813669
-1.1813319 0.85798585 0.47522479 4284813669
-1.1754552 0.85377067 0.47492316 4284813669
-1.1693695 0.85227239 0.47104985 4284813669
-1.1831532 0.8638804 0.47566891 4284813669
-1.1749318 0.86491072 0.47031042 4284813669
-1.152337 0.80690497 0.48552999 4284813669
-1.1520233 0.81551492 0.48469591 4284813669
-1.153832 0.8248328 0.48464471 4284813669
-1.1632111 0.83943093 0.48376501 4284813669
-1.1570085 0.83435696 0.48484629 4284813669
-1.1722981 0.84626704 0.48537809 4284813669
-1.1654087 0.84519893 0.48536915 4284813669
-1.1572553 0.84176886 0.48762652 4284813669
-1.1816554 0.85919416 0.48615652 4284813669
-1.1754116 0.85447991 0.4856059 4284813669
-1.2066782 0.86244053 0.48925421 4284813669
-1.1944935 0.86344838 0.48510826 4284813669
-1.1850878 0.8633253 0.48512539 4284813669
-1.1526595 0.80676514 0.49508688 4284813669
-1.1524369 0.81431866 0.49593651 4284813669
-1.1533213 0.82513756 0.49531314 4284813669
-1.1573418 0.83526021 0.49435195 4284813669
-1.1702673 0.84817737 0.49395621 4284813669
-1.163336 0.84596521 0.49404311 4284813669
-1.157441 0.84328783 0.494726 4284813669
-1.1726418 0.85517257 0.49493012 4284813669
-1.1666179 0.85485554 0.49624538 4284813669
-1.2006879 0.8645559 0.49185818 4284813669
-1.1947066 0.86381567 0.49187675 4284813669
-1.1843501 0.86578041 0.49635693 4284813669
-1.1758707 0.86228001 0.49591297 4284813669
-1.1529855 0.8064326 0.50455987 4284813669
-1.1527292 0.81486565 0.50526947 4284813669
-1.1536391 0.82568568 0.50541115 4284813669
-1.1576507 0.83527833 0.50507247 4284813669
-1.1577406 0.84460384 0.50504851 4284813669
-1.1733744 0.85511494 0.50400454 4284813669
-1.1635071 0.85117525 0.50439167 4284813669
-1.1575178 0.8506121 0.50435114 4284813669
-1.1820989 0.86621922 0.50650603 4284813669
-1.1760972 0.86408764 0.50452781 4284813669
-1.1818689 0.87151319 0.50487894 4284813669
-1.1532506 0.80708861 0.51318061 4284813669
-1.1473713 0.80834103 0.51826262 4284813669
-1.1530162 0.81503958 0.51407504 4284813669
-1.147234 0.81226444 0.51805401 4284813669
-1.1526898 0.82561731 0.51482981 4284813669
-1.1573082 0.8344475 0.51577157 4284813669
-1.170979 0.84940517 0.51657957 4284813669
-1.1638961 0.8476336 0.51254904 4284813669
-1.1581119 0.84404606 0.51565951 4284813669
-1.1745056 0.8547135 0.51503569 4284813669
-1.1637571 0.85160649 0.51233786 4284813669
-1.1579157 0.85223085 0.51793271 4284813669
-1.182399 0.86531436 0.51462811 4284813669
-1.1765527 0.860623 0.514763 4284813669
-1.1821643 0.87202299 0.51427144 4284813669
-1.1536636 0.80780143 0.52631432 4284813669
-1.1474535 0.808483 0.52087837 4284813669
-1.1537517 0.81573856 0.52484959 4284813669
-1.1473162 0.81240642 0.52066976 4284813669
-1.1560233 0.82502145 0.5241589 4284813669
-1.1587398 0.83454138 0.52504581 4284813669
-1.1584121 0.84516335 0.52580369 4284813669
-1.1752088 0.8560614 0.52536863 4284813669
-1.1641227 0.85504562 0.52676505 4284813669
-1.1581354 0.8530761 0.52538294 4284813669
-1.1836386 0.86586434 0.52466398 4284813669
-1.1768858 0.86214226 0.52629679 4284813669
-1.1855657 0.87095487 0.52517283 4284813669
-1.1539528 0.80830032 0.53550798 4284813669
-1.1545552 0.81527942 0.53478634 4284813669
-1.1587574 0.82402211 0.53513521 4284813669
-1.1590304 0.83504248 0.5342778 4284813669
-1.1587027 0.84566444 0.53503585 4284813669
-1.1833091 0.85977101 0.53645337 4284813669
-1.1753418 0.8570478 0.53498948 4284813669
-1.1644264 0.85444623 0.53529739 4284813669
-1.1584702 0.8528145 0.53518468 4284813669
-1.1837329 0.86575699 0.53511041 4284813669
-1.1770524 0.86290193 0.53206366 4284813669
-1.182807 0.87028623 0.53185731 4284813669
-1.1481941 0.80976063 0.54442006 4284813669
-1.1540518 0.81599081 0.5461632 4284813669
-1.1481247 0.81281078 0.5453822 4284813669
-1.1547123 0.8249805 0.54490286 4284813669
-1.1577052 0.8355 0.54505992 4284813669
-1.1590155 0.84523588 0.54401207 4284813669
-1.1837406 0.85767019 0.54733032 4284813669
-1.1760119 0.85641402 0.54355425 4284813669
-1.1646875 0.85531795 0.54401714 4284813669
-1.1588038 0.85283101 0.54523617 4284813669
-1.1860667 0.86531091 0.54463667 4284813669
-1.1773934 0.86207342 0.54148871 4284813669
-1.1547011 0.80819875 0.55790508 4284813669
-1.1543887 0.81641299 0.55671567 4284813669
-1.1483449 0.81418091 0.55336654 4284813669
-1.1540625 0.82520032 0.55568397 4284813669
-1.1565405 0.83506989 0.55505657 4284813669
-1.1594163 0.84437859 0.5552088 4284813669
-1.1719357 0.85831231 0.55423814 4284813669
-1.1650392 0.85662699 0.55590123 4284813669
-1.1590915 0.8530727 0.55412126 4284813669
-1.1965706 0.86990243 0.55400294 4284813669
-1.1861724 0.86662823 0.55414248 4284813669
-1.1754146 0.86310083 0.55525959 4284813669
-1.1866041 0.87203526 0.5574773 4284813669
-1.1549077 0.80855513 0.56447196 4284813669
-1.1546954 0.81487334 0.56439948 4284813669
-1.1543539 0.82602417 0.5652656 4284813669
-1.160112 0.8359766 0.56773603 4284813669
-1.1548032 0.83429682 0.56446028 4284813669
-1.1645581 0.84709036 0.56802827 4284813669
-1.1593336 0.84433305 0.56471401 4284813669
-1.1722951 0.85873103 0.56546485 4284813669
-1.1653773 0.85580581 0.56524229 4284813669
-1.1593479 0.8523711 0.56113267 4284813669
-1.1947273 0.86774558 0.5666604 4284813669
-1.185515 0.8672179 0.56506723 4284813669
-1.1746221 0.86388612 0.56532443 4284813669
-1.1651456 0.86242729 0.56489015 4284813669
-1.1969538 0.87056363 0.56618619 4284813669
-1.1897267 0.87262017 0.56164521 4284813669
-1.1551557 0.80898285 0.57235217 4284813669
-1.154977 0.81623441 0.57422459 4284813669
-1.1491768 0.81284297 0.57704735 4284813669
-1.1546869 0.82488489 0.57414097 4284813669
-1.1603625 0.83594257 0.57523292 4284813669
-1.1544117 0.83377814 0.57474583 4284813669
-1.172945 0.84903449 0.57532281 4284813669
-1.1634818 0.84490997 0.57477367 4284813669
-1.1541357 0.84064436 0.5733031 4284813669
-1.1744041 0.85471541 0.57560802 4284813669
-1.1938003 0.86809331 0.57425481 4284813669
-1.1843922 0.86590797 0.57515115 4284813669
-1.1769933 0.86203647 0.57456982 4284813669
-1.2033292 0.87199509 0.57870233 4284813669
-1.1972945 0.87115145 0.57701582 4284813669
-1.1555687 0.80969566 0.58548594 4284813669
-1.1553613 0.81533635 0.58488202 4284813669
-1.1609943 0.82794309 0.5862397 4284813669
-1.1550692 0.82415205 0.58490545 4284813669
-1.1606989 0.83512485 0.58453518 4284813669
-1.1547097 0.83049452 0.58042854 4284813669
-1.1733003 0.84776568 0.58473259 4284813669
-1.1633766 0.84462768 0.5842306 4284813669
-1.1766756 0.8545292 0.5846138 4284813669
-1.1905508 0.86832809 0.58214098 4284813669
-1.1846989 0.8655836 0.58404964 4284813669
-1.1788288 0.86266088 0.58523542 4284813669
-1.2034574 0.87221634 0.58277988 4284813669
-1.1920407 0.87306714 0.58484268 4284813669
-1.1846141 0.87150723 0.58741283 4284813669
-1.1557615 0.81420577 0.59578347 4284813669
-1.1613889 0.82627177 0.59642899 4284813669
-1.1554179 0.82305163 0.59428859 4284813669
-1.161031 0.83569753 0.5950861 4284813669
-1.1735513 0.84819907 0.59271729 4284813669
-1.1631006 0.84513247 0.59449595 4284813669
-1.1759775 0.85589314 0.59433448 4284813669
-1.1655604 0.85260534 0.5976547 4284813669
-1.1850005 0.86716074 0.59469265 4284813669
-1.1785375 0.86388367 0.59575599 4284813669
-1.1906073 0.87699628 0.59248948 4284813669
-1.1847907 0.8737089 0.59492117 4284813669
-1.1548293 0.81543386 0.60510594 4284813669
-1.149954 0.81557035 0.60313523 4284813669
-1.1616534 0.82838124 0.60649747 4284813669
-1.1557122 0.82437533 0.60446286 4284813669
-1.161409 0.83495122 0.60570729 4284813669
-1.1623396 0.84479582 0.60549629 4284813669
-1.1736007 0.85863179 0.6046192 4284813669
-1.1655372 0.8547619 0.60513306 4284813669
-1.1854427 0.86914307 0.6099661 4284813669
-1.1779343 0.86472303 0.6055522 4284813669
-1.1851918 0.87440062 0.6076681 4284813669
-1.1790774 0.87432992 0.60435975 4284813669
-1.1563398 0.81520361 0.61417061 4284813669
-1.1619173 0.82520044 0.61125183 4284813669
-1.1560484 0.82528436 0.61547863 4284813669
-1.1617455 0.83413363 0.61500937 4284813669
-1.1621144 0.84488505 0.61558789 4284813669
-1.1738069 0.85992813 0.61211306 4284813669
-1.1649294 0.85559499 0.61530393 4284813669
-1.185696 0.86957997 0.61801684 4284813669
-1.17601 0.86486089 0.61555225 4284813669
-1.1670389 0.86007702 0.61947095 4284813669
-1.1854385 0.8740136 0.61470526 4284813669
-1.179378 0.87541562 0.61448705 4284813669
-1.1791863 0.88216913 0.61546814 4284813669
-1.1629955 0.80972064 0.62821156 4284813669
-1.1627694 0.8149243 0.62661219 4284813669
-1.1566316 0.81608671 0.62382269 4284813669
-1.1623762 0.82500273 0.6248554 4284813669
-1.1564269 0.82231665 0.62389064 4284813669
-1.1620361 0.83463454 0.62424153 4284813669
-1.163165 0.846367 0.62475145 4284813669
-1.1743605 0.85806119 0.62689322 4284813669
-1.1673908 0.85506737 0.62505007 4284813669
-1.1826389 0.86658043 0.6263029 4284813669
-1.1763333 0.86468863 0.62336797 4284813669
-1.1671222 0.86022079 0.62211972 4284813669
-1.1916857 0.87314302 0.62106895 4284813669
-1.1857724 0.87421709 0.62494713 4284813669
-1.1854893 0.8806048 0.62281328 4284813669
-1.1796114 0.88148564 0.62756574 4284813669
-1.1570467 0.81503081 0.63525432 4284813669
-1.1626908 0.82597566 0.63528329 4284813669
-1.156817 0.82159734 0.63490522 4284813669
-1.1630795 0.83535767 0.63509178 4284813669
-1.1636082 0.84544653 0.63415015 4284813669
-1.1807424 0.85935032 0.63946378 4284813669
-1.1746116 0.85849452 0.63487792 4284813669
-1.1677288 0.85424626 0.63439113 4284813669
-1.1807979 0.86624521 0.63512152 4284813669
-1.1744562 0.86217719 0.63388133 4284813669
-1.186136 0.87399763 0.63565987 4284813669
-1.1797376 0.8817032 0.63157457 4284813669
-1.1633964 0.81460756 0.64514655 4284813669
-1.1638302 0.82568932 0.64517379 4284813669
-1.1756914 0.83778107 0.64665627 4284813669
-1.1681765 0.83485407 0.644903 4284813669
-1.175547 0.84317607 0.64770406 4284813669
-1.1683235 0.84464043 0.64268124 4284813669
-1.181025 0.85700423 0.64561915 4284813669
-1.1750025 0.85493577 0.64307493 4284813669
-1.1681131 0.85210067 0.64380252 4284813669
-1.1852502 0.86482954 0.64502198 4284813669
-1.1924462 0.87516934 0.64595783 4284813669
-1.1864347 0.87433231 0.64497632 4284813669
-1.1653668 0.81524217 0.65485984 4284813669
-1.1764452 0.8263824 0.65793931 4284813669
-1.1678463 0.82463449 0.65350503 4284813669
-1.1760997 0.83531052 0.65646362 4284813669
-1.1689885 0.83465415 0.65269935 4284813669
-1.1816688 0.84784257 0.65582228 4284813669
-1.1757277 0.84372288 0.65368086 4284813669
-1.1836326 0.85538036 0.6546765 4284813669
-1.1870703 0.86483759 0.65460163 4284813669
-1.1925662 0.87751913 0.65191317 4284813669
-1.1867617 0.8740055 0.65448129 4284813669
-1.1702251 0.80940545 0.66466731 4284813669
-1.1741706 0.81628305 0.66374266 4284813669
-1.1675481 0.81495506 0.66196084 4284813669
-1.1827167 0.82521003 0.66473144 4284813669
-1.176729 0.82334459 0.66343939 4284813669
-1.1823404 0.83660406 0.6647957 4284813669
-1.1763192 0.8346315 0.6623944 4284813669
-1.1819243 0.8472212 0.66289109 4284813669
-1.176054 0.8426398 0.66241342 4284813669
-1.1854106 0.85530835 0.66291255 4284813669
-1.1934661 0.86335802 0.66482663 4284813669
-1.1873264 0.86442584 0.66189015 4284813669
-1.1869998 0.87325197 0.66088259 4284813669
