# .PCD v0.7 - Point Cloud Data file format
VERSION 0.7
FIELDS x y z rgba
SIZE 4 4 4 4
TYPE F F F U
COUNT 1 1 1 1
WIDTH 1094
HEIGHT 1
VIEWPOINT 0 0 0 1 0 0 0
POINTS 1094
DATA ascii
-1.1106888 0.65494514 0.24626313 4282352852
-1.1034868 0.65354937 0.24320805 4282352852
-1.1114908 0.66459727 0.24980479 4282352852
-1.1043884 0.66524929 0.24473754 4282352852
-1.1121629 0.67455983 0.24735238 4282352852
-1.1050812 0.67470109 0.24457745 4282352852
-1.1210815 0.68851221 0.24208015 4282352852
-1.1128349 0.68452245 0.24489994 4282352852
-1.1055096 0.68147123 0.24180117 4282352852
-1.1215919 0.69493151 0.24353816 4282352852
-1.1136063 0.69379002 0.24835734 4282352852
-1.1222835 0.70372367 0.24523452 4282352852
-1.1144092 0.70534366 0.24643189 4282352852
-1.1231039 0.71493131 0.24500252 4282352852
-1.1147156 0.71029484 0.2441293 4282352852
-1.123826 0.7246111 0.24533181 4282352852
-1.1245611 0.73468512 0.24503055 4282352852
-1.1252962 0.74475902 0.24472934 4282352852
-1.1330975 0.75532168 0.24477674 4282352852
-1.1257162 0.75051552 0.2445572 4282352852
-1.133836 0.76544034 0.24447414 4282352852
-1.1345948 0.77568281 0.24461411 4282352852
-1.1427231 0.78935289 0.24850491 4282352852
-1.1353294 0.78528285 0.24566561 4282352852
-1.135994 0.7946434 0.24465559 4282352852
-1.1367239 0.80451035 0.24475606 4282352852
-1.1446818 0.81822944 0.24181525 4282352852
-1.1374623 0.81462902 0.24445347 4282352852
-1.1453331 0.82657272 0.24323042 4282352852
-1.138175 0.82338315 0.24709195 4282352852
-1.1542804 0.83921212 0.24288084 4282352852
-1.1460358 0.83549213 0.24500662 4282352852
-1.1548361 0.84595299 0.2451888 4282352852
-1.1466833 0.84311551 0.24835388 4282352852
-1.1625396 0.85566956 0.24384172 4282352852
-1.1553142 0.85215169 0.24600728 4282352852
-1.1714429 0.8666988 0.24642077 4282352852
-1.1631697 0.86390257 0.24475075 4282352852
-1.1719062 0.87330675 0.24548435 4282352852
-1.1639065 0.87528127 0.24073474 4282352852
-1.0938075 0.56593084 0.25465786 4282352852
-1.0933377 0.57556516 0.25426489 4282352852
-1.0917442 0.5854758 0.2549009 4282352852
-1.0947922 0.59488618 0.25543627 4282352852
-1.1002785 0.60564452 0.25591639 4282352852
-1.0964358 0.60204613 0.25329906 4282352852
-1.1008813 0.61394912 0.25554553 4282352852
-1.0946546 0.62519461 0.25417912 4282352852
-1.1036602 0.63615674 0.2544165 4282352852
-1.0951295 0.63156939 0.25437677 4282352852
-1.1102294 0.64563996 0.25515947 4282352852
-1.1081713 0.6418159 0.25434053 4282352852
-1.110865 0.65441626 0.25470552 4282352852
-1.1116489 0.66475737 0.25554538 4282352852
-1.1123804 0.67477995 0.25524569 4282352852
-1.1213483 0.68611681 0.25947607 4282352852
-1.1131116 0.68480265 0.25494599 4282352852
-1.1218988 0.69467109 0.2563329 4282352852
-1.1136991 0.69335341 0.25325397 4282352852
-1.1226242 0.70497745 0.25497478 4282352852
-1.1143909 0.70333606 0.25151914 4282352852
-1.1233163 0.71438468 0.25491846 4282352852
-1.1241043 0.72489285 0.25542924 4282352852
-1.1248392 0.73496675 0.255128 4282352852
-1.1255745 0.74504066 0.25482675 4282352852
-1.1330463 0.75259221 0.25065887 4282352852
-1.1263252 0.75513065 0.25510255 4282352852
-1.1341153 0.76572323 0.25461656 4282352852
-1.1268345 0.76231021 0.25431037 4282352852
-1.13474 0.77414471 0.25476024 4282352852
-1.1355265 0.78455567 0.25550357 4282352852
-1.1362649 0.79467452 0.25520098 4282352852
-1.1370033 0.80479318 0.2548984 4282352852
-1.1450425 0.81859475 0.25491327 4282352852
-1.1377417 0.81491202 0.25459585 4282352852
-1.1455114 0.82471734 0.25560415 4282352852
-1.1382947 0.82350439 0.25143871 4282352852
-1.145956 0.83162165 0.25306723 4282352852
-1.1394037 0.83667588 0.25684533 4282352852
-1.1460836 0.84590274 0.25611275 4282352852
-1.1397886 0.84215277 0.25610152 4282352852
-1.162889 0.85705751 0.25353238 4282352852
-1.1556886 0.85385221 0.25578082 4282352852
-1.1474136 0.85057813 0.25541347 4282352852
-1.1716129 0.86618882 0.25456324 4282352852
-1.1633486 0.86249995 0.25582016 4282352852
-1.1720428 0.8720808 0.25438705 4282352852
-1.0969862 0.55667388 0.26841152 4282352852
-1.0905324 0.56558794 0.26489064 4282352852
-1.0912571 0.57552081 0.26459366 4282352852
-1.1063232 0.58776009 0.26933852 4282352852
-1.0959355 0.58464003 0.26434392 4282352852
-1.1001066 0.59943581 0.26713285 4282352852
-1.0996455 0.5942167 0.26414311 4282352852
-1.1004535 0.60482746 0.26515177 4282352852
-1.1011523 0.61501557 0.26309219 4282352852
-1.0944419 0.6181699 0.26616532 4282352852
-1.1019394 0.62505311 0.26493692 4282352852
-1.0950493 0.62798375 0.26160142 4282352852
-1.1026675 0.63503087 0.26463857 4282352852
-1.0952563 0.63082176 0.26151657 4282352852
-1.1151103 0.64493459 0.26504368 4282352852
-1.1032528 0.64275187 0.26526567 4282352852
-1.1133238 0.65472645 0.26441184 4282352852
-1.112572 0.66476542 0.26550156 4282352852
-1.112657 0.67506021 0.26529172 4282352852
-1.1133802 0.68483347 0.26539123 4282352852
-1.1221634 0.69547206 0.26439363 4282352852
-1.1140028 0.69260025 0.26735267 4282352852
-1.1228725 0.70498639 0.26468661 4282352852
-1.1236074 0.71506029 0.26438543 4282352852
-1.131732 0.72850305 0.26878062 4282352852
-1.1243823 0.72517443 0.26552665 4282352852
-1.1320485 0.73283964 0.26865095 4282352852
-1.1251142 0.73555267 0.26421684 4282352852
-1.1258526 0.74532223 0.2649242 4282352852
-1.1265876 0.75539625 0.26462299 4282352852
-1.1343948 0.76600617 0.26475894 4282352852
-1.1271126 0.76259178 0.26440781 4282352852
-1.1350276 0.77467942 0.2644996 4282352852
-1.1358188 0.78523433 0.26501265 4282352852
-1.1365442 0.79495734 0.2653434 4282352852
-1.1372827 0.80507618 0.26504081 4282352852
-1.1380211 0.81519485 0.26473826 4282352852
-1.1541134 0.82823145 0.26809543 4282352852
-1.145926 0.82688498 0.26558954 4282352852
-1.1386204 0.82323909 0.26498112 4282352852
-1.1546061 0.83467674 0.26878104 4282352852
-1.146515 0.83541489 0.26402351 4282352852
-1.1553876 0.84607691 0.26646391 4282352852
-1.1471329 0.84401894 0.26337788 4282352852
-1.1632372 0.85763645 0.26552272 4282352852
-1.1559157 0.85378188 0.26489162 4282352852
-1.1475738 0.85074055 0.26123479 4282352852
-1.1719062 0.86694056 0.26389936 4282352852
-1.1636487 0.86338562 0.26503572 4282352852
-1.1723768 0.87287384 0.2651996 4282352852
-1.0907031 0.56444675 0.27488923 4282352852
-1.0927012 0.57430428 0.27467668 4282352852
-1.0949954 0.58465075 0.27465236 4282352852
-1.100271 0.59894228 0.27501217 4282352852
-1.0957205 0.5941602 0.27559486 4282352852
-1.1007426 0.60503012 0.27590257 4282352852
-1.0934093 0.60004044 0.27809536 4282352852
-1.1016695 0.61685938 0.2780512 4282352852
-1.0944726 0.61587596 0.27400833 4282352852
-1.0951948 0.62550288 0.27448696 4282352852
-1.1030469 0.6367352 0.27459705 4282352852
-1.0957516 0.6326375 0.27569714 4282352852
-1.1146654 0.64453238 0.27498832 4282352852
-1.1034955 0.64312959 0.27369088 4282352852
-1.1121844 0.65619129 0.2750991 4282352852
-1.112087 0.66414034 0.27452362 4282352852
-1.1054534 0.66821349 0.27794555 4282352852
-1.1129986 0.67673224 0.2738598 4282352852
-1.1059734 0.67534047 0.27773243 4282352852
-1.1136651 0.68536305 0.27503806 4282352852
-1.1226234 0.69826072 0.27437484 4282352852
-1.114292 0.69395381 0.2747812 4282352852
-1.1231505 0.70526797 0.27478406 4282352852
-1.1238858 0.71534204 0.27448282 4282352852
-1.1318917 0.7286647 0.27457628 4282352852
-1.1246604 0.72545612 0.2756241 4282352852
-1.132261 0.73332274 0.27559707 4282352852
-1.1255658 0.73836803 0.27379429 4282352852
-1.1331717 0.74468684 0.27844754 4282352852
-1.1260909 0.74556369 0.27357915 4282352852
-1.1339828 0.7555486 0.27884781 4282352852
-1.12683 0.75527799 0.27446988 4282352852
-1.1345978 0.76514071 0.2752257 4282352852
-1.1273113 0.762793 0.27162027 4282352852
-1.135307 0.77496225 0.27464202 4282352852
-1.1360323 0.78468549 0.27497277 4282352852
-1.1368238 0.79524022 0.27548581 4282352852
-1.1375619 0.80535907 0.27518323 4282352852
-1.145399 0.81559414 0.27757952 4282352852
-1.1383104 0.81548786 0.27524289 4282352852
-1.1542746 0.82839465 0.27394614 4282352852
-1.1461478 0.82509261 0.27948034 4282352852
-1.1390027 0.8251949 0.27432644 4282352852
-1.1547482 0.83466619 0.27438599 4282352852
-1.1467835 0.83380437 0.27921984 4282352852
-1.1394351 0.83001399 0.27734622 4282352852
-1.1626172 0.84682822 0.27246237 4282352852
-1.1553998 0.84304857 0.27570379 4282352852
-1.1633664 0.85627425 0.27453244 4282352852
-1.1562057 0.85332465 0.27759239 4282352852
-1.1729268 0.86608374 0.27581048 4282352852
-1.1638495 0.86320108 0.2734431 4282352852
-1.1801357 0.87830454 0.27842739 4282352852
-1.1765889 0.87376112 0.27485093 4282352852
-1.0914122 0.5649544 0.28503513 4282352852
-1.0968457 0.57472432 0.28414151 4282352852
-1.0982713 0.5845204 0.28418371 4282352852
-1.1003371 0.59650099 0.28466561 4282352852
-1.0999154 0.59132183 0.28310457 4282352852
-1.1010113 0.60522598 0.28587863 4282352852
-1.1015543 0.61278248 0.2853227 4282352852
-1.0953655 0.62436157 0.28448555 4282352852
-1.1033484 0.63756835 0.28400958 4282352852
-1.0961037 0.63378245 0.28619674 4282352852
-1.1121327 0.6458407 0.28427425 4282352852
-1.103834 0.64369255 0.28535172 4282352852
-1.1116037 0.65410352 0.28459087 4282352852
-1.1128067 0.66858166 0.28990334 4282352852
-1.1054422 0.66556197 0.28517443 4282352852
-1.1132571 0.67500472 0.28899309 4282352852
-1.1061347 0.67514372 0.28462791 4282352852
-1.1139466 0.685206 0.28653356 4282352852
-1.1068821 0.68517119 0.28494555 4282352852
-1.1229143 0.69809842 0.28625923 4282352852
-1.1145957 0.69487327 0.28403467 4282352852
-1.1073537 0.69125903 0.28583595 4282352852
-1.1234286 0.70554972 0.28488147 4282352852
-1.1150261 0.70000136 0.28609115 4282352852
-1.1241279 0.71522373 0.28432971 4282352852
-1.132211 0.72898799 0.28616756 4282352852
-1.1249014 0.72545779 0.28507367 4282352852
-1.1325802 0.73404741 0.28601629 4282352852
-1.125487 0.73375666 0.28403807 4282352852
-1.1333346 0.74454284 0.28525624 4282352852
-1.1259093 0.74004859 0.28240621 4282352852
-1.1341096 0.75500762 0.28538954 4282352852
-1.134848 0.76512647 0.28508696 4282352852
-1.1355864 0.77524525 0.28478441 4282352852
-1.1363248 0.78536397 0.28448179 4282352852
-1.1371113 0.795775 0.28522512 4282352852
-1.144938 0.80571473 0.2880708 4282352852
-1.1377554 0.80488545 0.28413978 4282352852
-1.1454793 0.81404269 0.2852208 4282352852
-1.1385798 0.81576067 0.28502303 4282352852
-1.146228 0.82517385 0.28239098 4282352852
-1.1392926 0.82451469 0.28766152 4282352852
-1.1551149 0.8373543 0.28099772 4282352852
-1.1470499 0.8354187 0.28499776 4282352852
-1.139798 0.83127403 0.2879428 4282352852
-1.1557682 0.84477305 0.28516755 4282352852
-1.1718887 0.85964745 0.28431228 4282352852
-1.16373 0.85745674 0.2853775 4282352852
-1.1564071 0.85352862 0.28490576 4282352852
-1.1723564 0.86585057 0.28471789 4282352852
-1.1801239 0.87555248 0.28593019 4282352852
-1.1746125 0.87247908 0.28518921 4282352852
-1.0976158 0.55731148 0.29127112 4282352852
-1.1055467 0.5670836 0.2986837 4282352852
-1.0952225 0.56647164 0.2960839 4282352852
-1.0844576 0.56829727 0.29418626 4282352852
-1.1061844 0.57625377 0.29717833 4282352852
-1.0989069 0.5741297 0.29327059 4282352852
-1.1054786 0.58573484 0.29715443 4282352852
-1.0996314 0.58443391 0.29189003 4282352852
-1.1004465 0.59473974 0.29405171 4282352852
-1.1011703 0.60411304 0.29533136 4282352852
-1.1019337 0.61448675 0.29528114 4282352852
-1.0949289 0.61340642 0.29904801 4282352852
-1.1027228 0.62496632 0.29592106 4282352852
-1.0955613 0.62455994 0.29159707 4282352852
-1.10339 0.63444239 0.29468444 4282352852
-1.1148217 0.64764035 0.2946195 4282352852
-1.1041377 0.64444 0.29510042 4282352852
-1.1144924 0.65330392 0.29529598 4282352852
-1.1050148 0.6572088 0.29257375 4282352852
-1.1205961 0.66269767 0.29771236 4282352852
-1.1126972 0.66482437 0.29647925 4282352852
-1.1055349 0.66433585 0.29236066 4282352852
-1.1216065 0.67704874 0.29583955 4282352852
-1.1133116 0.67363942 0.2950871 4282352852
-1.1222762 0.68572378 0.29702386 4282352852
-1.1140349 0.68441164 0.29230267 4282352852
-1.1229192 0.6950379 0.29530165 4282352852
-1.1146619 0.6930024 0.2920458 4282352852
-1.1235019 0.70322478 0.29447934 4282352852
-1.1159693 0.70891237 0.29731545 4282352852
-1.1242915 0.7149533 0.29153001 4282352852
-1.116374 0.71462631 0.29666582 4282352852
-1.1250709 0.72464144 0.2940833 4282352852
-1.1170211 0.72257459 0.29906145 4282352852
-1.1258467 0.73465419 0.29556075 4282352852
-1.1336107 0.74513143 0.29438558 4282352852
-1.1262668 0.74041063 0.29538861 4282352852
-1.134389 0.75529057 0.2955319 4282352852
-1.1351274 0.76540935 0.29522938 4282352852
-1.1358657 0.77552813 0.29492679 4282352852
-1.1365474 0.78501588 0.29422876 4282352852
-1.137288 0.79459471 0.2955651 4282352852
-1.1449486 0.80397737 0.29351199 4282352852
-1.137989 0.80391723 0.29610807 4282352852
-1.1457808 0.81477052 0.29493713 4282352852
-1.1386482 0.81315249 0.29525188 4282352852
-1.1549596 0.82908827 0.29881167 4282352852
-1.146629 0.82557976 0.29694441 4282352852
-1.1394122 0.82463598 0.29200825 4282352852
-1.1554222 0.83604383 0.29684702 4282352852
-1.1465341 0.83499134 0.29354471 4282352852
-1.1398342 0.83041811 0.29183537 4282352852
-1.1628773 0.84166211 0.29761237 4282352852
-1.1560527 0.84518379 0.29513642 4282352852
-1.1720921 0.85985333 0.29169452 4282352852
-1.1638861 0.85625744 0.29497045 4282352852
-1.1566489 0.85377347 0.29368183 4282352852
-1.1725949 0.86557108 0.29488188 4282352852
-1.1644151 0.86222267 0.2984679 4282352852
-1.1801794 0.87423861 0.29190588 4282352852
-1.1732816 0.87430954 0.29653963 4282352852
-1.0980095 0.55770999 0.30555838 4282352852
-1.1055173 0.56476331 0.30423731 4282352852
-1.0959265 0.56163663 0.3043026 4282352852
-1.1062748 0.57469219 0.30524617 4282352852
-1.1069981 0.58446538 0.30534568 4282352852
-1.1061692 0.59425354 0.30572331 4282352852
-1.1014812 0.60478795 0.30558062 4282352852
-1.1022388 0.61503577 0.30566415 4282352852
-1.0950072 0.61348575 0.30189261 4282352852
-1.1029372 0.62474358 0.30498388 4282352852
-1.1036655 0.63472134 0.30468556 4282352852
-1.1168307 0.64662957 0.30140364 4282352852
-1.1043602 0.64409965 0.30481365 4282352852
-1.1142335 0.65596193 0.3036834 4282352852
-1.1052002 0.65475655 0.30694628 4282352852
-1.1211098 0.66721624 0.30479571 4282352852
-1.112784 0.66325474 0.30442607 4282352852
-1.1216347 0.67441195 0.30458057 4282352852
-1.1223732 0.68418157 0.3052879 4282352852
-1.1231447 0.69459999 0.30542058 4282352852
-1.1238586 0.70428872 0.30539334 4282352852
-1.1160483 0.70899242 0.30018574 4282352852
-1.1246221 0.71408856 0.30700341 4282352852
-1.1165321 0.71478635 0.3024064 4282352852
-1.1254749 0.72628093 0.30519512 4282352852
-1.1172118 0.72343063 0.30406305 4282352852
-1.1261331 0.73518652 0.30525696 4282352852
-1.1341009 0.74830538 0.30444154 4282352852
-1.1267551 0.74357057 0.30539998 4282352852
-1.1346684 0.75557345 0.30567431 4282352852
-1.1353353 0.76481688 0.30510789 4282352852
-1.1360757 0.77476698 0.30536404 4282352852
-1.136778 0.78448415 0.30480984 4282352852
-1.1448821 0.79960716 0.3035472 4282352852
-1.1375164 0.79460293 0.30450729 4282352852
-1.1453723 0.80602008 0.30422938 4282352852
-1.1381407 0.80282134 0.30522826 4282352852
-1.1460308 0.81498528 0.30412775 4282352852
-1.1550803 0.82921064 0.30319968 4282352852
-1.1467997 0.8247748 0.30597258 4282352852
-1.1555465 0.83508855 0.30448782 4282352852
-1.1473734 0.83171231 0.30841339 4282352852
-1.1632918 0.84440887 0.3059321 4282352852
-1.1562537 0.84507167 0.30335283 4282352852
-1.1640421 0.85505813 0.30456343 4282352852
-1.172888 0.86611599 0.30480632 4282352852
-1.1646174 0.86242747 0.3058134 4282352852
-1.17346 0.87410057 0.30414534 4282352852
-1.1052246 0.5561496 0.31768313 4282352852
-1.0982062 0.55790925 0.312702 4282352852
-1.1058013 0.5649547 0.31483445 4282352852
-1.0984703 0.56169707 0.31211212 4282352852
-1.1064517 0.57396704 0.31427768 4282352852
-1.0998591 0.57806402 0.31924891 4282352852
-1.1055137 0.58459777 0.31559232 4282352852
-1.1053634 0.59453052 0.31539339 4282352852
-1.1017922 0.60546291 0.31582978 4282352852
-1.1024847 0.61504471 0.31528333 4282352852
-1.1032128 0.62502247 0.31498498 4282352852
-1.1112198 0.63780254 0.31667793 4282352852
-1.103941 0.63500029 0.31468663 4282352852
-1.1116997 0.64461261 0.31581134 4282352852
-1.1043823 0.64204752 0.31161603 4282352852
-1.1124915 0.65553284 0.31528592 4282352852
-1.1052537 0.65349054 0.31270379 4282352852
-1.1213878 0.66749793 0.31489316 4282352852
-1.1130606 0.66353494 0.31447211 4282352852
-1.121913 0.67469358 0.31467798 4282352852
-1.1226481 0.68476748 0.3143768 4282352852
-1.1234229 0.69488162 0.31551802 4282352852
-1.124158 0.70495552 0.31521678 4282352852
-1.1248931 0.71502942 0.31491557 4282352852
-1.1256281 0.72510332 0.31461436 4282352852
-1.126366 0.73491353 0.31518722 4282352852
-1.134292 0.74805254 0.31266645 4282352852
-1.1270831 0.74443591 0.31576866 4282352852
-1.1348755 0.75548577 0.31405544 4282352852
-1.1278477 0.75400662 0.31808117 4282352852
-1.1355356 0.76421624 0.31469667 4282352852
-1.1363322 0.77504402 0.31462148 4282352852
-1.1370574 0.78476709 0.31495222 4282352852
-1.1377958 0.79488587 0.31464964 4282352852
-1.1459187 0.80872476 0.31784007 4282352852
-1.1385258 0.80475289 0.31475013 4282352852
-1.1462623 0.81445134 0.31475571 4282352852
-1.1389561 0.81078684 0.31417418 4282352852
-1.147004 0.82461494 0.31445184 4282352852
-1.1558797 0.83658415 0.31322649 4282352852
-1.1477792 0.83447647 0.31634179 4282352852
-1.1636028 0.84646893 0.31217194 4282352852
-1.156441 0.8435623 0.31506729 4282352852
-1.1643255 0.85534501 0.31484717 4282352852
-1.1569741 0.85004842 0.31721556 4282352852
-1.1731726 0.86640429 0.31514141 4282352852
-1.1648602 0.86267328 0.31462803 4282352852
-1.1808403 0.8742227 0.31787813 4282352852
-1.1736695 0.8737281 0.31344473 4282352852
-1.1128306 0.5482111 0.32423481 4282352852
-1.1133988 0.55514276 0.3264707 4282352852
-1.1054479 0.55770147 0.32194576 4282352852
-1.1139603 0.56268293 0.32668945 4282352852
-1.1061143 0.56633228 0.32312405 4282352852
-1.1068201 0.57500321 0.32573742 4282352852
-1.0999378 0.57814372 0.32210636 4282352852
-1.1062307 0.58491486 0.32558581 4282352852
-1.1065383 0.5951286 0.32532862 4282352852
-1.1041793 0.60535794 0.32502478 4282352852
-1.1027602 0.6153236 0.32528436 4282352852
-1.1034883 0.62530142 0.32498604 4282352852
-1.1042165 0.63527924 0.32468769 4282352852
-1.1120837 0.64663351 0.32503194 4282352852
-1.1047759 0.64244598 0.3259033 4282352852
-1.1209272 0.65681332 0.32772467 4282352852
-1.1126747 0.65485638 0.32442695 4282352852
-1.1216264 0.66773939 0.32354808 4282352852
-1.1133537 0.66416311 0.32414868 4282352852
-1.1221462 0.67466319 0.32391852 4282352852
-1.1145403 0.67829329 0.32983062 4282352852
-1.1229261 0.68504906 0.32447422 4282352852
-1.1147493 0.68115693 0.32974499 4282352852
-1.1237011 0.69516331 0.32561547 4282352852
-1.1244361 0.70523715 0.32531425 4282352852
-1.1251713 0.71531105 0.32501301 4282352852
-1.1259063 0.72538495 0.32471177 4282352852
-1.1266414 0.73545885 0.32441056 4282352852
-1.1344516 0.74571526 0.32569075 4282352852
-1.1272715 0.74409366 0.32415235 4282352852
-1.1352926 0.7575444 0.32446697 4282352852
-1.1280246 0.7537415 0.32578877 4282352852
-1.1357288 0.76200223 0.32868403 4282352852
-1.1289717 0.76713985 0.32418507 4282352852
-1.1368821 0.77856529 0.32601359 4282352852
-1.1295298 0.774369 0.32517198 4282352852
-1.144464 0.78573716 0.32726675 4282352852
-1.1373004 0.78467858 0.32474318 4282352852
-1.1451799 0.79453003 0.32991692 4282352852
-1.1380751 0.79516882 0.32479206 4282352852
-1.1461008 0.80837137 0.32600731 4282352852
-1.1388135 0.80528754 0.32448947 4282352852
-1.1547523 0.81806684 0.32256356 4282352852
-1.146543 0.81473547 0.3249431 4282352852
-1.1550717 0.82244468 0.32243267 4282352852
-1.1473182 0.82524353 0.32496503 4282352852
-1.1561272 0.83601433 0.32458872 4282352852
-1.1478808 0.83276403 0.32527795 4282352852
-1.164048 0.84691966 0.32833201 4282352852
-1.1567129 0.84404027 0.32434875 4282352852
-1.1645514 0.85499197 0.32472989 4282352852
-1.1571352 0.85021162 0.32306629 4282352852
-1.18062 0.86783421 0.32771581 4282352852
-1.1734204 0.86631399 0.32511839 4282352852
-1.1650991 0.86201042 0.32592034 4282352852
-1.1838741 0.87319869 0.32538456 4282352852
-1.1136026 0.55485713 0.3352969 4282352852
-1.1143396 0.56476325 0.33555189 4282352852
-1.1065209 0.56939602 0.33021414 4282352852
-1.1148684 0.5715993 0.33652869 4282352852
-1.1071007 0.57617122 0.33336303 4282352852
-1.1078284 0.58530599 0.33548379 4282352852
-1.1085236 0.59496069 0.33483601 4282352852
-1.1037326 0.60585928 0.33572 4282352852
-1.1037889 0.61525905 0.33521855 4282352852
-1.1106323 0.62306362 0.33626994 4282352852
-1.1037347 0.6254043 0.33435684 4282352852
-1.1044917 0.63555819 0.33468878 4282352852
-1.1052562 0.64587712 0.33482015 4282352852
-1.1211296 0.65790689 0.33250424 4282352852
-1.1129955 0.65575391 0.3344219 4282352852
-1.1058446 0.65329683 0.3364462 4282352852
-1.121774 0.66522318 0.33661655 4282352852
-1.1136792 0.66548717 0.33308625 4282352852
-1.1221797 0.67229813 0.33207393 4282352852
-1.1144968 0.67597598 0.33482453 4282352852
-1.1232593 0.68618619 0.3342573 4282352852
-1.115007 0.68247855 0.33602539 4282352852
-1.1239763 0.69570863 0.33483881 4282352852
-1.1247144 0.70551878 0.33541167 4282352852
-1.1254493 0.71559268 0.33511043 4282352852
-1.1332772 0.72739017 0.33261925 4282352852
-1.1261027 0.72466099 0.33450609 4282352852
-1.1337847 0.73355645 0.3346906 4282352852
-1.1268014 0.73428798 0.33407018 4282352852
-1.1345501 0.74407446 0.33429551 4282352852
-1.1274633 0.74268854 0.3357439 4282352852
-1.1355029 0.75675321 0.335004 4282352852
-1.1281481 0.7522164 0.33504653 4282352852
-1.1360922 0.76466507 0.33523351 4282352852
-1.1291902 0.7673611 0.33211878 4282352852
-1.1368908 0.77549523 0.33524117 4282352852
-1.1294003 0.77023935 0.33203271 4282352852
-1.1446244 0.78589952 0.3330881 4282352852
-1.1375505 0.78392786 0.33672917 4282352852
-1.1453135 0.79466534 0.33476803 4282352852
-1.1383592 0.79501027 0.33639777 4282352852
-1.1460818 0.80485606 0.33543435 4282352852
-1.1388676 0.80400366 0.33032835 4282352852
-1.1550746 0.81839323 0.33426499 4282352852
-1.1468236 0.81501961 0.33513045 4282352852
-1.1555407 0.82427108 0.33555311 4282352852
-1.1478028 0.82945794 0.33178562 4282352852
-1.1563339 0.83492041 0.33586207 4282352852
-1.1481206 0.83381379 0.33165538 4282352852
-1.164216 0.84650815 0.33611608 4282352852
-1.1568925 0.84301567 0.33436522 4282352852
-1.1647849 0.85445291 0.3354584 4282352852
-1.18354 0.86834145 0.33586791 4282352852
-1.1735594 0.86484706 0.33481985 4282352852
-1.1652822 0.86147183 0.33466035 4282352852
-1.1871814 0.87275004 0.33480898 4282352852
-1.1138957 0.55562037 0.34458587 4282352852
-1.1145819 0.56464505 0.34539878 4282352852
-1.1150274 0.57176024 0.34229866 4282352852
-1.1075106 0.57769138 0.34504774 4282352852
-1.1080761 0.58529186 0.34525135 4282352852
-1.1087102 0.59371316 0.34576562 4282352852
-1.1024791 0.60447836 0.34562752 4282352852
-1.1102954 0.61598212 0.34354368 4282352852
-1.1037301 0.61276054 0.34570786 4282352852
-1.1108267 0.6233868 0.34296319 4282352852
-1.1040531 0.6245535 0.34931698 4282352852
-1.1119006 0.6369009 0.34600633 4282352852
-1.1046047 0.63369238 0.34451565 4282352852
-1.1126766 0.64723396 0.34655917 4282352852
-1.1054174 0.64494365 0.34384558 4282352852
-1.1216065 0.65838969 0.34981412 4282352852
-1.1132894 0.65713644 0.34195399 4282352852
-1.1061935 0.65488225 0.34555027 4282352852
-1.1219995 0.66478527 0.34673551 4282352852
-1.1138549 0.66400766 0.34426215 4282352852
-1.1067183 0.66157401 0.34678009 4282352852
-1.122458 0.67257977 0.34217137 4282352852
-1.1146748 0.67471665 0.3454501 4282352852
-1.1235638 0.68702739 0.34376052 4282352852
-1.1153368 0.68351966 0.34595293 4282352852
-1.124185 0.69498688 0.34511057 4282352852
-1.1248873 0.70436126 0.34555212 4282352852
-1.1256224 0.71443516 0.34525087 4282352852
-1.1263576 0.72450906 0.34494963 4282352852
-1.1270927 0.73458308 0.34464839 4282352852
-1.1278279 0.74465686 0.34434718 4282352852
-1.1358116 0.75806975 0.34330282 4282352852
-1.1285392 0.75378406 0.34585112 4282352852
-1.1363789 0.76533794 0.34453562 4282352852
-1.129247 0.7620874 0.34960076 4282352852
-1.1371205 0.77515101 0.34524614 4282352852
-1.1378955 0.78561574 0.34537941 4282352852
-1.1457125 0.79775864 0.34147277 4282352852
-1.1385283 0.79428893 0.34512007 4282352852
-1.1464429 0.80656624 0.34465218 4282352852
-1.1391671 0.80243254 0.34661669 4282352852
-1.1552761 0.8185972 0.34157836 4282352852
-1.1471043 0.81530374 0.34531781 4282352852
-1.1557854 0.82424849 0.3452155 4282352852
-1.1476082 0.82119274 0.34805483 4282352852
-1.1637444 0.83711064 0.34479892 4282352852
-1.1564251 0.83293736 0.34517527 4282352852
-1.1643157 0.84484619 0.34483492 4282352852
-1.1733122 0.85726911 0.34703678 4282352852
-1.1649909 0.85432208 0.34391668 4282352852
-1.18111 0.86833048 0.34551021 4282352852
-1.1737711 0.86428189 0.3447583 4282352852
-1.1653748 0.86047959 0.34115949 4282352852
-1.1853598 0.87170649 0.34506369 4282352852
-1.1141281 0.55561769 0.35371214 4282352852
-1.106066 0.55390722 0.3571699 4282352852
-1.1147351 0.5634675 0.35481799 4282352852
-1.1076025 0.57535321 0.35541144 4282352852
-1.1082772 0.58443463 0.35561869 4282352852
-1.1089041 0.59302551 0.35536182 4282352852
-1.1027546 0.60475737 0.35562861 4282352852
-1.1034826 0.61473513 0.35533026 4282352852
-1.1113683 0.62646097 0.35531962 4282352852
-1.1041847 0.62435657 0.35504258 4282352852
-1.1120025 0.63488221 0.35583383 4282352852
-1.1046522 0.63176018 0.35196134 4282352852
-1.1211097 0.64855719 0.35877031 4282352852
-1.1127049 0.64461058 0.35525569 4282352852
-1.121608 0.65610647 0.35648212 4282352852
-1.1133392 0.65400434 0.35296389 4282352852
-1.122169 0.66395742 0.35578334 4282352852
-1.1228516 0.67331165 0.35550362 4282352852
-1.1146657 0.67258584 0.3512592 4282352852
-1.1237975 0.68619794 0.35533488 4282352852
-1.1155988 0.68391144 0.3551065 4282352852
-1.1243907 0.69452882 0.35450828 4282352852
-1.1251738 0.70489359 0.35524833 4282352852
-1.1259006 0.71471679 0.35534832 4282352852
-1.1266357 0.72479081 0.35504708 4282352852
-1.1273708 0.73486471 0.35474586 4282352852
-1.128106 0.74493861 0.35444462 4282352852
-1.1288806 0.75505275 0.3555859 4282352852
-1.1366582 0.76562077 0.354678 4282352852
-1.1294059 0.76224834 0.35537073 4282352852
-1.1373253 0.77486414 0.35411161 4282352852
-1.1381147 0.78507268 0.35554647 4282352852
-1.1459817 0.79534191 0.35902366 4282352852
-1.1387627 0.79425853 0.35440174 4282352852
-1.1467147 0.80630362 0.35607409 4282352852
-1.1393291 0.80236715 0.35316491 4282352852
-1.1473848 0.81558794 0.35550517 4282352852
-1.1635073 0.82872635 0.35975286 4282352852
-1.1561711 0.82626081 0.35452428 4282352852
-1.1479145 0.8228476 0.35528812 4282352852
-1.1638442 0.83474386 0.35556296 4282352852
-1.1565237 0.83134782 0.35364026 4282352852
-1.1645625 0.84472597 0.35486346 4282352852
-1.1735184 0.85720515 0.35531363 4282352852
-1.1652042 0.85351998 0.35460052 4282352852
-1.1811976 0.86659235 0.35397208 4282352852
-1.1739978 0.86360192 0.3556149 4282352852
-1.1829877 0.87266302 0.35417497 4282352852
-1.1138127 0.5465399 0.36759555 4282352852
-1.1063415 0.55499017 0.36485606 4282352852
-1.1070518 0.56462961 0.36482897 4282352852
-1.107783 0.57465225 0.36452928 4282352852
-1.1085622 0.58496422 0.36526555 4282352852
-1.1172526 0.59267253 0.36910352 4282352852
-1.1092556 0.59432846 0.36537728 4282352852
-1.1101786 0.60580808 0.36838546 4282352852
-1.1068935 0.60361147 0.36391702 4282352852
-1.1108665 0.61490285 0.36907113 4282352852
-1.1037189 0.6149742 0.3639026 4282352852
-1.111524 0.62511575 0.36531848 4282352852
-1.1043322 0.62377989 0.36249536 4282352852
-1.1202582 0.63436699 0.36641306 4282352852
-1.112126 0.6334163 0.36492664 4282352852
-1.1210955 0.64614373 0.36519471 4282352852
-1.1129106 0.64406109 0.36491615 4282352852
-1.1216887 0.65447462 0.36436817 4282352852
-1.1224635 0.66458869 0.36550939 4282352852
-1.123165 0.67405742 0.36563876 4282352852
-1.1239917 0.6853283 0.36546671 4282352852
-1.1157631 0.68350947 0.3627106 4282352852
-1.1246687 0.69481045 0.36460575 4282352852
-1.1254067 0.70462066 0.36517859 4282352852
-1.1261787 0.71499848 0.36544576 4282352852
-1.1269139 0.72507244 0.36514455 4282352852
-1.1276489 0.73514634 0.36484334 4282352852
-1.1357915 0.74867845 0.36968586 4282352852
-1.1283841 0.74522024 0.3645421 4282352852
-1.1361388 0.75465268 0.36602694 4282352852
-1.1288984 0.75267148 0.36316434 4282352852
-1.1368321 0.76445818 0.36486363 4282352852
-1.1375705 0.7745769 0.36456108 4282352852
-1.145678 0.78965586 0.36356333 4282352852
-1.1383121 0.78439003 0.36527157 4282352852
-1.146142 0.79550427 0.36484498 4282352852
-1.138956 0.79204458 0.36838913 4282352852
-1.1468121 0.80478859 0.36427608 4282352852
-1.1475924 0.81512588 0.36498654 4282352852
-1.1636692 0.82889026 0.36562929 4282352852
-1.1563467 0.82508707 0.36480668 4282352852
-1.1480892 0.82167983 0.36551887 4282352852
-1.1640971 0.83475292 0.36545396 4282352852
-1.1648458 0.84501272 0.3651472 4282352852
-1.1737624 0.85745221 0.36417231 4282352852
-1.1654874 0.85380673 0.36488423 4282352852
-1.1837256 0.86698079 0.3661702 4282352852
-1.1742077 0.86355466 0.3639898 4282352852
-1.1960433 0.87337619 0.36585304 4282352852
-1.1835002 0.87312013 0.3624649 4282352852
-1.106374 0.55333525 0.37091208 4282352852
-1.0998983 0.55962282 0.37413725 4282352852
-1.1003019 0.56465161 0.37541673 4282352852
-1.0935884 0.56868231 0.37583023 4282352852
-1.104984 0.57492375 0.37444735 4282352852
-1.0938989 0.57293934 0.37570298 4282352852
-1.116702 0.58411819 0.37224668 4282352852
-1.1062541 0.58460921 0.3759118 4282352852
-1.1174115 0.59283346 0.37487349 4282352852
-1.1095271 0.59454048 0.37542537 4282352852
-1.1102934 0.60504031 0.37511137 4282352852
-1.1110246 0.61506301 0.37481174 4282352852
-1.1117561 0.62508559 0.37451202 4282352852
-1.1205785 0.63561404 0.37537113 4282352852
-1.1122786 0.63224465 0.37429795 4282352852
-1.1212317 0.64468235 0.3747668 4282352852
-1.1219379 0.65446031 0.37418568 4282352852
-1.122702 0.66483015 0.37416434 4282352852
-1.1148397 0.66533631 0.37905383 4282352852
-1.1234767 0.67494422 0.37530562 4282352852
-1.1152576 0.67106354 0.37888259 4282352852
-1.1242118 0.68501824 0.37500438 4282352852
-1.124947 0.69509214 0.37470314 4282352852
-1.1256822 0.70516598 0.37440193 4282352852
-1.126457 0.71528012 0.37554315 4282352852
-1.1345543 0.72868341 0.37898445 4282352852
-1.127192 0.72535402 0.37524191 4282352852
-1.1349865 0.73501146 0.37763515 4282352852
-1.1278297 0.73479599 0.37293845 4282352852
-1.1356708 0.74490511 0.37586281 4282352852
-1.1285105 0.74468172 0.37105477 4282352852
-1.136373 0.75462222 0.3753086 4282352852
-1.1371115 0.764741 0.37500605 4282352852
-1.1378499 0.77485973 0.37470347 4282352852
-1.1385883 0.78497845 0.37440094 4282352852
-1.1464489 0.79635292 0.37443286 4282352852
-1.1392525 0.79323727 0.37657082 4282352852
-1.1470584 0.8045001 0.37477186 4282352852
-1.1477867 0.81438154 0.37476769 4282352852
-1.1638715 0.82909513 0.37297478 4282352852
-1.1566287 0.82537264 0.37504542 4282352852
-1.1483698 0.82196397 0.3757062 4282352852
-1.1643399 0.83499885 0.37426859 4282352852
-1.1571351 0.83129132 0.37779623 4282352852
-1.1651291 0.8452996 0.37543088 4282352852
-1.1740471 0.85774058 0.37450737 4282352852
-1.1657706 0.85409367 0.37516794 4282352852
-1.184835 0.86797494 0.37462413 4282352852
-1.1745178 0.86367375 0.37580761 4282352852
-1.1942551 0.87304842 0.37535718 4282352852
-1.1149592 0.55569774 0.38608974 4282352852
-1.1071081 0.55938274 0.38222203 4282352852
-1.1036898 0.566275 0.38558212 4282352852
-1.1072893 0.5746544 0.38450363 4282352852
-1.1091046 0.58553761 0.38488719 4282352852
-1.1101341 0.59904462 0.38620692 4282352852
-1.1097045 0.59359491 0.38511628 4282352852
-1.1105701 0.60532057 0.38515744 4282352852
-1.1138393 0.61537701 0.38491246 4282352852
-1.1202241 0.62633574 0.38830861 4282352852
-1.1130252 0.62561828 0.38340706 4282352852
-1.1207747 0.63489008 0.38516545 4282352852
-1.1124111 0.63105303 0.38295165 4282352852
-1.1214738 0.64459413 0.38451436 4282352852
-1.1222451 0.65503788 0.384563 4282352852
-1.1141365 0.65269023 0.38805002 4282352852
-1.1150463 0.66630316 0.38435993 4282352852
-1.1237701 0.67604113 0.38364622 4282352852
-1.1156642 0.67412728 0.38597271 4282352852
-1.1244899 0.68529981 0.38510177 4282352852
-1.1252252 0.69537377 0.38480055 4282352852
-1.1259602 0.70544761 0.38449931 4282352852
-1.1267351 0.71556181 0.38564059 4282352852
-1.1345429 0.72599441 0.38631546 4282352852
-1.1274304 0.72559547 0.38389692 4282352852
-1.1351359 0.73462719 0.3846072 4282352852
-1.1359109 0.74509203 0.38474047 4282352852
-1.1366525 0.75490516 0.38545099 4282352852
-1.1373909 0.76502395 0.38514847 4282352852
-1.1381292 0.77514267 0.38484588 4282352852
-1.1388675 0.78526145 0.38454327 4282352852
-1.146791 0.79795438 0.38322136 4282352852
-1.1396296 0.79506934 0.38606265 4282352852
-1.1556329 0.80814707 0.38580778 4282352852
-1.1466198 0.80443412 0.38530475 4282352852
-1.1560771 0.81454337 0.38473815 4282352852
-1.1481245 0.81588882 0.38365614 4282352852
-1.1569237 0.82634705 0.38379967 4282352852
-1.1488093 0.82442611 0.38582844 4282352852
-1.16477 0.83760613 0.38360068 4282352852
-1.1575412 0.83415967 0.38542926 4282352852
-1.1653758 0.8451792 0.38545945 4282352852
-1.1742612 0.85693437 0.38524464 4282352852
-1.165947 0.85291481 0.38549548 4282352852
-1.1901089 0.86734056 0.38660923 4282352852
-1.1819398 0.86643058 0.38356003 4282352852
-1.1747402 0.86362618 0.38467509 4282352852
-1.1947795 0.87183529 0.38512543 4282352852
-1.1074338 0.55882853 0.39660206 4282352852
-1.1052135 0.56492859 0.39514977 4282352852
-1.1163925 0.57180977 0.39571381 4282352852
-1.1086075 0.5754872 0.39446238 4282352852
-1.1093363 0.58526605 0.3947669 4282352852
-1.110256 0.5973779 0.39580846 4282352852
-1.1098344 0.59197861 0.39489263 4282352852
-1.1108469 0.60560083 0.39520347 4282352852
-1.1147856 0.61565977 0.39470264 4282352852
-1.1203479 0.62537044 0.39594966 4282352852
-1.1199886 0.62209886 0.3913227 4282352852
-1.121053 0.63517177 0.39526287 4282352852
-1.1217797 0.64499491 0.39536285 4282352852
-1.122552 0.65561545 0.39494032 4282352852
-1.1142156 0.65277028 0.39092034 4282352852
-1.1230084 0.66247499 0.39300275 4282352852
-1.1154654 0.6680916 0.39563304 4282352852
-1.124088 0.67636299 0.39518613 4282352852
-1.1158562 0.67402714 0.39379579 4282352852
-1.1247681 0.68558145 0.39519921 4282352852
-1.1327126 0.69736654 0.39732236 4282352852
-1.1254674 0.69525564 0.39464748 4282352852
-1.1333348 0.70629656 0.39589521 4282352852
-1.1260936 0.70424992 0.3931973 4282352852
-1.1338934 0.71435922 0.39449406 4282352852
-1.134637 0.72475094 0.39360324 4282352852
-1.1277624 0.72459888 0.3998073 4282352852
-1.1353389 0.7344982 0.39294928 4282352852
-1.1284976 0.73467278 0.39950609 4282352852
-1.1360343 0.74433434 0.39177471 4282352852
-1.1291929 0.74470645 0.39776236 4282352852
-1.1350282 0.75669682 0.39524981 4282352852
-1.1298231 0.75334126 0.39750418 4282352852
-1.1376703 0.76530689 0.39529082 4282352852
-1.1384085 0.77542561 0.39498824 4282352852
-1.1391469 0.78554434 0.39468566 4282352852
-1.1436661 0.79892761 0.39553609 4282352852
-1.1397798 0.79421759 0.39442632 4282352852
-1.155781 0.80762142 0.39314297 4282352852
-1.1469892 0.80452114 0.39495555 4282352852
-1.1563034 0.81396139 0.39529562 4282352852
-1.1483563 0.81567544 0.39337286 4282352852
-1.1571023 0.82450086 0.3961516 4282352852
-1.149057 0.82588708 0.39131963 4282352852
-1.1650509 0.83734769 0.39537105 4282352852
-1.1577593 0.8338539 0.39486811 4282352852
-1.1655481 0.84436661 0.39457306 4282352852
-1.1745627 0.85758054 0.3951996 4282352852
-1.16627 0.85405648 0.39487141 4282352852
-1.1823521 0.86802238 0.39513081 4282352852
-1.1750464 0.86420906 0.39500135 4282352852
-1.1926808 0.87505519 0.39523089 4282352852
-1.1827556 0.87273699 0.397322 4282352852
-1.1155723 0.55720705 0.40577507 4282352852
-1.1075571 0.55851132 0.40235692 4282352852
-1.1161797 0.56546342 0.40572071 4282352852
-1.1081011 0.56516159 0.40445623 4282352852
-1.1088703 0.57575303 0.4039959 4282352852
-1.1061286 0.58597243 0.40460929 4282352852
-1.1139807 0.59661978 0.40421155 4282352852
-1.1049944 0.5939523 0.40589583 4282352852
-1.1158202 0.60432452 0.40512702 4282352852
-1.1037552 0.60049039 0.40723321 4282352852
-1.120118 0.61903125 0.40527385 4282352852
-1.1189975 0.61338145 0.40389398 4282352852
-1.1205959 0.62537944 0.40566149 4282352852
-1.1213311 0.63545334 0.40536031 4282352852
-1.1220661 0.64552718 0.40505904 4282352852
-1.1228012 0.6556012 0.40475786 4282352852
-1.1236669 0.66847289 0.40148556 4282352852
-1.1156558 0.66748875 0.40484369 4282352852
-1.1242874 0.67576504 0.40473241 4282352852
-1.1161132 0.67325592 0.4061076 4282352852
-1.1249701 0.68471992 0.40561959 4282352852
-1.1256763 0.69449788 0.40503848 4282352852
-1.1334263 0.70466125 0.40422305 4282352852
-1.1261929 0.70124072 0.4057993 4282352852
-1.1272551 0.71575522 0.4054856 4282352852
-1.1279215 0.72475988 0.40557727 4282352852
-1.1358399 0.73667896 0.40629768 4282352852
-1.1285851 0.73399985 0.40488845 4282352852
-1.1364728 0.74535221 0.40603837 4282352852
-1.1293122 0.74482715 0.40208983 4282352852
-1.136525 0.75598007 0.40488911 4282352852
-1.1298372 0.7520228 0.40187466 4282352852
-1.1379205 0.76529247 0.40515205 4282352852
-1.1386647 0.77527303 0.40547827 4282352852
-1.1393209 0.78438163 0.40487131 4282352852
-1.1420554 0.79757863 0.40511167 4282352852
-1.139816 0.79138553 0.4040404 4282352852
-1.1479002 0.80535257 0.40533394 4282352852
-1.1565825 0.81451446 0.40464807 4282352852
-1.148324 0.81116033 0.40516028 4282352852
-1.164575 0.82709259 0.40636206 4282352852
-1.1572692 0.82412928 0.40377498 4282352852
-1.1651402 0.83503348 0.40556449 4282352852
-1.1742301 0.84837669 0.40877384 4282352852
-1.1658314 0.84465355 0.40485671 4282352852
-1.1746862 0.85565931 0.40560073 4282352852
-1.1663257 0.85194087 0.40316847 4282352852
-1.182598 0.86819303 0.40428472 4282352852
-1.1752605 0.86340284 0.40573859 4282352852
-1.2065952 0.87898874 0.40943444 4282352852
-1.1955905 0.87591934 0.40512478 4282352852
-1.1829263 0.87222469 0.40549988 4282352852
-1.1995907 0.88067603 0.40520945 4282352852
-1.1158081 0.55685353 0.41605189 4282352852
-1.116414 0.56540984 0.4150669 4282352852
-1.1082122 0.5644787 0.41079658 4282352852
-1.1168476 0.57182628 0.41351888 4282352852
-1.1093502 0.57756507 0.41758698 4282352852
-1.1101295 0.58807832 0.4177514 4282352852
-1.1090432 0.58323294 0.41418704 4282352852
-1.1141597 0.596479 0.41664597 4282352852
-1.1035038 0.59533268 0.41229004 4282352852
-1.1172687 0.6042133 0.4150559 4282352852
-1.1039127 0.60064977 0.41294813 4282352852
-1.1202757 0.61781996 0.41496223 4282352852
-1.1198523 0.61236483 0.41413537 4282352852
-1.1208345 0.62562084 0.41431651 4282352852
-1.1215274 0.63472939 0.41515461 4282352852
-1.1222682 0.64466566 0.41547945 4282352852
-1.1229744 0.65444368 0.41489831 4282352852
-1.1237093 0.66451752 0.41459703 4282352852
-1.1244473 0.67432773 0.41517001 4282352852
-1.1325586 0.68917829 0.41496864 4282352852
-1.1252195 0.68470567 0.4154371 4282352852
-1.1330132 0.69566298 0.41404969 4282352852
-1.1259545 0.69477957 0.41513589 4282352852
-1.1335906 0.70361054 0.41370845 4282352852
-1.1267341 0.70445418 0.417734 4282352852
-1.1274247 0.71492743 0.41453347 4282352852
-1.1282126 0.72543544 0.41504422 4282352852
-1.1361849 0.73836696 0.41494793 4282352852
-1.1289346 0.73511535 0.41537344 4282352852
-1.1366831 0.74529755 0.41445068 4282352852
-1.1293547 0.74087191 0.41520134 4282352852
-1.137418 0.75501084 0.41517535 4282352852
-1.1381235 0.76442701 0.41561884 4282352852
-1.138862 0.77454573 0.41531625 4282352852
-1.1396003 0.78466457 0.4150137 4282352852
-1.1429266 0.79585117 0.41477326 4282352852
-1.1399424 0.79036593 0.41194296 4282352852
-1.1481808 0.8056367 0.41552129 4282352852
-1.1569157 0.81601006 0.41338673 4282352852
-1.1488005 0.81373459 0.416412 4282352852
-1.1647242 0.82588649 0.41571021 4282352852
-1.157397 0.82209641 0.41466862 4282352852
-1.1653661 0.8346805 0.41544724 4282352852
-1.1743928 0.84854144 0.41467962 4282352852
-1.1661147 0.8449403 0.41514042 4282352852
-1.1748227 0.85443336 0.41450346 4282352852
-1.1935412 0.86699194 0.41733503 4282352852
-1.182598 0.86435688 0.41538182 4282352852
-1.1753224 0.86148739 0.41370144 4282352852
-1.2147088 0.87717015 0.41819641 4282352852
-1.2065331 0.87568337 0.41655767 4282352852
-1.1948093 0.87344187 0.41345063 4282352852
-1.1829073 0.87015039 0.41075626 4282352852
-1.1226718 0.55064911 0.42781165 4282352852
-1.1160483 0.55713379 0.4246656 4282352852
-1.1166621 0.56541884 0.42477879 4282352852
-1.1173973 0.57549274 0.42447755 4282352852
-1.1094801 0.57663584 0.42537102 4282352852
-1.1102792 0.58778787 0.42446303 4282352852
-1.1098245 0.58175832 0.42406878 4282352852
-1.1145027 0.59442598 0.42565855 4282352852
-1.1168857 0.60470045 0.42484719 4282352852
-1.1203023 0.61466211 0.42514375 4282352852
-1.1199431 0.61139053 0.42051676 4282352852
-1.1210074 0.62446332 0.42445695 4282352852
-1.1217823 0.63457751 0.4255982 4282352852
-1.1225175 0.64465147 0.42529699 4282352852
-1.1232524 0.65472531 0.42499575 4282352852
-1.1241125 0.66625851 0.42537272 4282352852
-1.1159606 0.6651454 0.42358628 4282352852
-1.1247227 0.67487311 0.4243933 4282352852
-1.1254975 0.68498737 0.42553455 4282352852
-1.1332924 0.69489384 0.42722735 4282352852
-1.1261328 0.69419861 0.4238154 4282352852
-1.13393 0.70422184 0.42524967 4282352852
-1.126891 0.70479095 0.42292124 4282352852
-1.134813 0.71589273 0.42613333 4282352852
-1.1275798 0.71419597 0.42273626 4282352852
-1.1355085 0.72529888 0.42621461 4282352852
-1.1282535 0.72376323 0.42148769 4282352852
-1.1363261 0.73650175 0.42587963 4282352852
-1.1292614 0.7362079 0.4250342 4282352852
-1.1368861 0.74443203 0.42491743 4282352852
-1.1376246 0.75455087 0.42461488 4282352852
-1.1383629 0.7646696 0.42431229 4282352852
-1.1391412 0.77482867 0.42545864 4282352852
-1.1401304 0.78787899 0.42651856 4282352852
-1.1397959 0.7839703 0.42470193 4282352852
-1.1418511 0.79509002 0.42454916 4282352852
-1.1483554 0.80446887 0.42575207 4282352852
-1.1573193 0.81796336 0.42357558 4282352852
-1.1490971 0.81463253 0.42544815 4282352852
-1.1649265 0.82609141 0.42305571 4282352852
-1.1578275 0.82426983 0.42526919 4282352852
-1.1497071 0.82197344 0.42814174 4282352852
-1.1656088 0.83492637 0.42426181 4282352852
-1.1746588 0.84826517 0.42591819 4282352852
-1.1663674 0.84494948 0.42503145 4282352852
-1.1751074 0.85472172 0.42483854 4282352852
-1.19467 0.86747372 0.42525047 4282352852
-1.182776 0.86316699 0.42580613 4282352852
-1.1755372 0.8606137 0.42466235 4282352852
-1.214572 0.87423885 0.4213092 4282352852
-1.2064674 0.87218922 0.42408791 4282352852
-1.1995553 0.87233824 0.4279407 4282352852
-1.1228714 0.55085117 0.43505624 4282352852
-1.1163832 0.55828202 0.4344793 4282352852
-1.1169006 0.56566024 0.43343368 4282352852
-1.1091328 0.56806284 0.43654361 4282352852
-1.1174512 0.57421452 0.43029055 4282352852
-1.1097262 0.57605153 0.43671513 4282352852
-1.1104029 0.58582956 0.43498638 4282352852
-1.1099941 0.58086908 0.43328801 4282352852
-1.1150271 0.59415919 0.43489423 4282352852
-1.1201304 0.60891461 0.43502772 4282352852
-1.1181252 0.60330749 0.43554005 4282352852
-1.1205506 0.61467111 0.43485558 4282352852
-1.121224 0.62423843 0.43360704 4282352852
-1.1136 0.62827873 0.43761575 4282352852
-1.1219412 0.63473845 0.43136814 4282352852
-1.1141326 0.6359784 0.43623644 4282352852
-1.1227553 0.64569193 0.43161812 4282352852
-1.1148796 0.64601719 0.4365108 4282352852
-1.1234114 0.65488625 0.43076572 4282352852
-1.1156211 0.65585101 0.43715039 4282352852
-1.1243292 0.66606784 0.43442923 4282352852
-1.1161075 0.66264206 0.4365882 4282352852
-1.1250008 0.67515475 0.43449071 4282352852
-1.1331173 0.68974417 0.43525341 4282352852
-1.1257757 0.68526894 0.43563196 4282352852
-1.1335393 0.69552624 0.43508053 4282352852
-1.1341558 0.70384824 0.43519425 4282352852
-1.1274815 0.70965368 0.43201545 4282352852
-1.1349561 0.71570313 0.43230203 4282352852
-1.1279374 0.71455806 0.43571866 4282352852
-1.1358342 0.72596335 0.43707067 4282352852
-1.1286955 0.72539568 0.4341113 4282352852
-1.1364537 0.73462313 0.43632841 4282352852
-1.1295165 0.7370373 0.43264031 4282352852
-1.1371657 0.74471498 0.43505982 4282352852
-1.1379039 0.75483376 0.43475729 4282352852
-1.1386422 0.76495242 0.43445468 4282352852
-1.1394205 0.77511162 0.43560109 4282352852
-1.1428528 0.78583968 0.43592322 4282352852
-1.1399081 0.78229892 0.433936 4282352852
-1.1561911 0.7979008 0.43735057 4282352852
-1.1459019 0.79410386 0.43460205 4282352852
-1.1568832 0.80738604 0.43706691 4282352852
-1.1486223 0.80527699 0.43388456 4282352852
-1.157469 0.81541204 0.43682694 4282352852
-1.1492575 0.81479484 0.4312695 4282352852
-1.1653978 0.8279258 0.43623376 4282352852
-1.1581464 0.82524621 0.43495643 4282352852
-1.1497872 0.82205462 0.43105242 4282352852
-1.165892 0.8352133 0.43454555 4282352852
-1.1586144 0.83008629 0.43931594 4282352852
-1.1748546 0.84764498 0.43539381 4282352852
-1.1665744 0.84404826 0.43575168 4282352852
-1.175392 0.85500997 0.43517363 4282352852
-1.1945344 0.86778355 0.43302321 4282352852
-1.183165 0.86538768 0.43464431 4282352852
-1.1759243 0.86209679 0.43555275 4282352852
-1.2001711 0.87711287 0.43828952 4282352852
-1.1974779 0.87272185 0.43527851 4282352852
-1.2005395 0.88163674 0.43965304 4282352852
-1.1231108 0.55109364 0.44374967 4282352852
-1.1165882 0.55734736 0.44523183 4282352852
-1.1167983 0.56022555 0.44514576 4282352852
-1.1093699 0.56830299 0.44515452 4282352852
-1.1101012 0.57832569 0.44485483 4282352852
-1.1097878 0.57403028 0.44498327 4282352852
-1.1106238 0.58548468 0.44464076 4282352852
-1.1113918 0.59580976 0.44490656 4282352852
-1.1202564 0.60690975 0.44577098 4282352852
-1.1142912 0.60247934 0.44492078 4282352852
-1.1208287 0.61495274 0.44495305 4282352852
-1.121567 0.62472242 0.44566038 4282352852
-1.1136789 0.62835884 0.44048607 4282352852
-1.1143765 0.63657916 0.44407046 4282352852
-1.1150043 0.64489877 0.44463202 4282352852
-1.1239535 0.65676796 0.44659007 4282352852
-1.1157179 0.65429145 0.44545597 4282352852
-1.1245798 0.66576231 0.44513988 4282352852
-1.1162655 0.66280222 0.44232881 4282352852
-1.1252789 0.67543638 0.44458812 4282352852
-1.1332622 0.68828428 0.44515792 4282352852
-1.1259431 0.6846388 0.44402424 4282352852
-1.1337699 0.69499463 0.4456616 4282352852
-1.1343988 0.70375955 0.44498518 4282352852
-1.1276857 0.70808345 0.44457439 4282352852
-1.1282299 0.71533257 0.4449499 4282352852
-1.1288892 0.72440696 0.44456756 4282352852
-1.136861 0.73713911 0.44502288 4282352852
-1.1295036 0.73243356 0.44545043 4282352852
-1.137445 0.7449978 0.4452022 4282352852
-1.1381834 0.75511652 0.44489965 4282352852
-1.1380301 0.76516205 0.44425932 4282352852
-1.137308 0.77517486 0.44435999 4282352852
-1.143942 0.78579021 0.44436601 4282352852
-1.1333755 0.78403854 0.44807801 4282352852
-1.156312 0.79802322 0.44173861 4282352852
-1.1446029 0.79450947 0.44507205 4282352852
-1.1568047 0.80446845 0.44242421 4282352852
-1.147728 0.80468988 0.4464089 4282352852
-1.1576301 0.81557518 0.44267765 4282352852
-1.1496984 0.8152414 0.44727817 4282352852
-1.1525753 0.8251121 0.44573107 4282352852
-1.1660943 0.83541811 0.44189101 4282352852
-1.1573427 0.8346957 0.44605383 4282352852
-1.1641433 0.84652728 0.44339284 4282352852
-1.1597742 0.84342372 0.44623661 4282352852
-1.1755548 0.85517472 0.44107938 4282352852
-1.1651832 0.85361391 0.44532511 4282352852
-1.1915867 0.86883688 0.44025666 4282352852
-1.1834004 0.86653936 0.44054627 4282352852
-1.1763937 0.86584628 0.44312453 4282352852
-1.1683391 0.86402446 0.44721109 4282352852
-1.2003411 0.87682366 0.44579211 4282352852
-1.1920995 0.87407678 0.44521353 4282352852
-1.183962 0.87190342 0.44706434 4282352852
-1.1768329 0.87011063 0.44802111 4282352852
-1.2007869 0.88188738 0.44863832 4282352852
-1.1926863 0.88234216 0.44432721 4282352852
-1.1167303 0.55660254 0.45295379 4282352852
-1.1089944 0.55864072 0.45837057 4282352852
