# .PCD v0.7 - Point Cloud Data file format
VERSION 0.7
FIELDS x y z rgba
SIZE 4 4 4 4
TYPE F F F U
COUNT 1 1 1 1
WIDTH 1080
HEIGHT 1
VIEWPOINT 0 0 0 1 0 0 0
POINTS 1080
DATA ascii
-1.0911983 0.70797706 0.30487904 4280638522
-1.0873621 0.70407867 0.30494225 4280638522
-1.0944477 0.71475881 0.3052839 4280638522
-1.089932 0.71140337 0.30666846 4280638522
-1.094842 0.72456825 0.30467176 4280638522
-1.096578 0.73434526 0.30568826 4280638522
-1.1004755 0.7454043 0.30586058 4280638522
-1.0974667 0.74446249 0.30434081 4280638522
-1.1024085 0.75616491 0.30579925 4280638522
-1.0990711 0.75309759 0.30490944 4280638522
-1.111606 0.76861984 0.30140707 4280638522
-1.1053711 0.76474291 0.30478555 4280638522
-1.1119577 0.77567691 0.30211174 4280638522
-1.1070958 0.77567393 0.30647925 4280638522
-1.1111139 0.78553969 0.30453768 4280638522
-1.1074389 0.78603142 0.30496302 4280638522
-1.1108652 0.7987358 0.30708173 4280638522
-1.1078877 0.79437315 0.30474675 4280638522
-1.11347 0.80645764 0.3050355 4280638522
-1.1086332 0.80309039 0.30358496 4280638522
-1.1159741 0.81523049 0.30449837 4280638522
-1.1164072 0.82473445 0.30503261 4280638522
-1.1206628 0.83562589 0.3023138 4280638522
-1.1170766 0.83404034 0.30497605 4280638522
-1.1202528 0.84859145 0.30559623 4280638522
-1.1171926 0.84471011 0.30576107 4280638522
-1.1215442 0.85442936 0.30465293 4280638522
-1.1187843 0.85475433 0.305383 4280638522
-1.1310223 0.86670882 0.30407101 4280638522
-1.1259273 0.86397314 0.30494434 4280638522
-1.119765 0.86143082 0.30887771 4280638522
-1.1321014 0.87595135 0.30415091 4280638522
-1.1283319 0.87341422 0.30686074 4280638522
-1.1344379 0.88133103 0.30567265 4280638522
-0.65129107 0.4050245 0.31362891 4280638522
-0.64964813 0.40321791 0.31291628 4280638522
-0.65033984 0.41256446 0.31208724 4280638522
-0.64780718 0.41507939 0.31621829 4280638522
-0.64306259 0.42614067 0.31569374 4280638522
-0.64275163 0.43482083 0.31393352 4280638522
-0.63918096 0.43546021 0.31796414 4280638522
-0.64167935 0.44479987 0.31528711 4280638522
-0.63944602 0.445795 0.31815553 4280638522
-0.64361387 0.45506042 0.31484872 4280638522
-0.65125704 0.46748519 0.31375363 4280638522
-0.64803463 0.4637593 0.31518552 4280638522
-0.6606952 0.47928721 0.31594527 4280638522
-0.65533662 0.47543508 0.31458762 4280638522
-0.6489473 0.47047815 0.31882989 4280638522
-0.68241131 0.48906314 0.31461552 4280638522
-0.67538625 0.48558721 0.3151432 4280638522
-0.66513395 0.48264319 0.31488714 4280638522
-0.65963793 0.4824506 0.31607121 4280638522
-0.71415854 0.49927866 0.31293887 4280638522
-0.704624 0.49831265 0.31353062 4280638522
-0.69487834 0.49610981 0.31547496 4280638522
-0.68609041 0.4923856 0.31509069 4280638522
-0.79244137 0.50903279 0.31516531 4280638522
-0.7856319 0.50846821 0.31458816 4280638522
-0.77503663 0.50854564 0.31497499 4280638522
-0.76514846 0.50804085 0.31469524 4280638522
-0.75485432 0.50746298 0.31284466 4280638522
-0.74446493 0.50808036 0.31474382 4280638522
-0.7352562 0.50739437 0.31513545 4280638522
-0.72477764 0.50528204 0.31494918 4280638522
-0.71598601 0.50282115 0.31751382 4280638522
-0.70608878 0.50033742 0.31835446 4280638522
-1.1046394 0.5192194 0.31524256 4280638522
-1.0955049 0.51907003 0.31515294 4280638522
-1.084936 0.518861 0.31506664 4280638522
-1.0757916 0.51778698 0.31225377 4280638522
-1.0697684 0.51806545 0.31076995 4280638522
-1.0402147 0.51932108 0.31460181 4280638522
-1.0375102 0.51935488 0.31194565 4280638522
-1.0031314 0.51867223 0.31222522 4280638522
-0.99441588 0.5191372 0.31468311 4280638522
-0.98536217 0.51841873 0.31511983 4280638522
-0.97535866 0.5174219 0.31396994 4280638522
-0.9647935 0.51733088 0.31529647 4280638522
-0.95672935 0.51658863 0.31653914 4280638522
-0.94500351 0.51884836 0.3154017 4280638522
-0.93553621 0.51977354 0.31321153 4280638522
-0.92944485 0.51997924 0.31094572 4280638522
-0.91435194 0.51825702 0.31622511 4280638522
-0.90566504 0.51737976 0.31389332 4280638522
-0.89526981 0.51705867 0.31494451 4280638522
-0.88418925 0.51775867 0.31500411 4280638522
-0.87445343 0.51698059 0.31468722 4280638522
-0.86553919 0.5149281 0.3156915 4280638522
-0.85462469 0.51432741 0.31502783 4280638522
-0.84718472 0.51349247 0.31352445 4280638522
-0.83428794 0.51583815 0.31675878 4280638522
-0.82408845 0.51528311 0.31565619 4280638522
-0.81469053 0.51370603 0.31510895 4280638522
-0.803581 0.51288575 0.31526309 4280638522
-0.79655123 0.51176506 0.31510413 4280638522
-0.75266486 0.51002717 0.31753388 4280638522
-0.74905688 0.51017296 0.31696549 4280638522
-1.1126169 0.52452022 0.31380096 4280638522
-1.1073208 0.5227778 0.31536388 4280638522
-1.0991477 0.52180094 0.31139174 4280638522
-1.0713528 0.52055621 0.3138701 4280638522
-1.0663546 0.5208866 0.31740108 4280638522
-1.0522331 0.52267051 0.3167403 4280638522
-1.0456681 0.52216995 0.31443214 4280638522
-1.0376742 0.52193451 0.31512606 4280638522
-1.0242202 0.52180636 0.31552866 4280638522
-1.0142753 0.5221585 0.31646496 4280638522
-1.0053838 0.52131212 0.3161048 4280638522
-0.99461836 0.52178001 0.31877401 4280638522
-0.93128949 0.52133644 0.31952512 4280638522
-0.92456073 0.52039981 0.31569037 4280638522
-0.91627246 0.52071261 0.31284535 4280638522
-1.0810404 0.56539202 0.31034678 4280638522
-1.077847 0.56803703 0.31476828 4280638522
-1.0808023 0.57496017 0.31606713 4280638522
-1.0774876 0.57495344 0.3148635 4280638522
-1.076926 0.58511883 0.31391621 4280638522
-1.074607 0.59524274 0.31467676 4280638522
-1.073876 0.60574466 0.315018 4280638522
-1.0756069 0.61569595 0.31552708 4280638522
-1.0809983 0.62135559 0.31956378 4280638522
-1.075757 0.62473863 0.3142314 4280638522
-1.0813566 0.63760293 0.31785268 4280638522
-1.0776052 0.63409376 0.31485739 4280638522
-1.0816095 0.64625514 0.31447905 4280638522
-1.0789629 0.64456517 0.31463701 4280638522
-1.08237 0.65417218 0.31425461 4280638522
-1.0784674 0.65895706 0.31904864 4280638522
-1.0841026 0.66529548 0.31470785 4280638522
-1.0788019 0.66199082 0.31757325 4280638522
-1.0831308 0.67580956 0.31510478 4280638522
-1.0799851 0.67293835 0.31981334 4280638522
-1.0859421 0.68499285 0.31504768 4280638522
-1.0903739 0.69550806 0.31653765 4280638522
-1.0874321 0.69505435 0.31488809 4280638522
-1.0920103 0.70679259 0.31522569 4280638522
-1.0884119 0.70335501 0.31439182 4280638522
-1.0944363 0.71483624 0.31501037 4280638522
-1.1006052 0.72767377 0.31499788 4280638522
-1.0965942 0.72507763 0.31465319 4280638522
-1.0969841 0.73503965 0.31487161 4280638522
-1.0957347 0.74474531 0.31538922 4280638522
-1.1020793 0.75842172 0.31486881 4280638522
-1.097442 0.7543276 0.31548968 4280638522
-1.1024219 0.76575041 0.31531417 4280638522
-1.0995021 0.76424569 0.31648588 4280638522
-1.1046659 0.77502877 0.31461021 4280638522
-1.1100665 0.78757405 0.31293094 4280638522
-1.1067364 0.78458458 0.31487447 4280638522
-1.1070236 0.79513782 0.31414476 4280638522
-1.112664 0.80558223 0.31387433 4280638522
-1.1075724 0.80148095 0.31488746 4280638522
-1.1150093 0.81500232 0.31473985 4280638522
-1.114736 0.82494926 0.31473154 4280638522
-1.1210408 0.83814752 0.3163594 4280638522
-1.115786 0.83467203 0.3146401 4280638522
-1.1219736 0.84402621 0.31377804 4280638522
-1.1177956 0.84489995 0.31424502 4280638522
-1.1211519 0.85664588 0.31307086 4280638522
-1.1182363 0.85435152 0.31538486 4280638522
-1.122282 0.86454183 0.31431195 4280638522
-1.1190975 0.8615216 0.31576037 4280638522
-1.1312329 0.87669021 0.31099471 4280638522
-1.1232667 0.87242901 0.31334752 4280638522
-0.65038157 0.40890422 0.32644102 4280638522
-0.64769953 0.40769905 0.3252168 4280638522
-0.65005469 0.41284764 0.32378083 4280638522
-0.64780575 0.41491592 0.32428816 4280638522
-0.64443964 0.42478988 0.32556334 4280638522
-0.64196914 0.43419844 0.32494518 4280638522
-0.64163297 0.4452838 0.32521912 4280638522
-0.6396482 0.44318292 0.32293856 4280638522
-0.65081906 0.4569045 0.32871434 4280638522
-0.64437801 0.45551333 0.32537571 4280638522
-0.65219575 0.4655236 0.32600933 4280638522
-0.64817995 0.46351904 0.32221425 4280638522
-0.66040188 0.47865212 0.32817626 4280638522
-0.65534616 0.47448289 0.32481349 4280638522
-0.68036199 0.48833877 0.32367042 4280638522
-0.67466307 0.4867962 0.32527983 4280638522
-0.66501504 0.48325795 0.32546541 4280638522
-0.65863931 0.48098448 0.32279706 4280638522
-0.70242047 0.49836946 0.32404053 4280638522
-0.69524837 0.49598226 0.32421756 4280638522
-0.6847285 0.49273252 0.3253175 4280638522
-0.67891997 0.49066278 0.32594293 4280638522
-0.80282044 0.50945598 0.32730693 4280638522
-0.79723018 0.50952595 0.32181635 4280638522
-0.78469801 0.50834322 0.32092559 4280638522
-0.77403212 0.50876725 0.32241723 4280638522
-0.76543397 0.50955874 0.32292408 4280638522
-0.75447744 0.50877774 0.3255055 4280638522
-0.74531972 0.50741166 0.32444653 4280638522
-0.73460436 0.5063979 0.32549709 4280638522
-0.72498399 0.50536203 0.32529071 4280638522
-0.71528745 0.50353158 0.3247917 4280638522
-0.70587003 0.50157207 0.32596809 4280638522
-1.1147234 0.51903707 0.32366258 4280638522
-1.105945 0.51891381 0.32406709 4280638522
-1.0960002 0.51803923 0.32522634 4280638522
-1.0842384 0.51778293 0.3227658 4280638522
-1.075051 0.51841903 0.32734287 4280638522
-1.0653069 0.51875973 0.32725331 4280638522
-1.0547867 0.51912421 0.32133505 4280638522
-1.045969 0.51950139 0.32465595 4280638522
-1.0371621 0.51991415 0.32796627 4280638522
-0.9938215 0.51929224 0.32489401 4280638522
-0.98512608 0.51907897 0.32492062 4280638522
-0.97875613 0.5178439 0.32461819 4280638522
-0.96165931 0.51907551 0.32770798 4280638522
-0.95509768 0.51875907 0.32301748 4280638522
-0.94228899 0.51981854 0.3235606 4280638522
-0.93972009 0.51985067 0.32103759 4280638522
-0.9137395 0.51842833 0.32365561 4280638522
-0.90522069 0.51889169 0.32548252 4280638522
-0.8947528 0.5177983 0.32535002 4280638522
-0.88454616 0.51792359 0.32454854 4280638522
-0.87390918 0.5179984 0.32475823 4280638522
-0.86481231 0.51619714 0.32536528 4280638522
-0.85555553 0.51478899 0.32428604 4280638522
-0.84275413 0.51649183 0.32639313 4280638522
-0.83481693 0.51430678 0.32494 4280638522
-0.82518214 0.51360124 0.32438579 4280638522
-0.81432515 0.51251101 0.32608461 4280638522
-0.804811 0.51186055 0.32417744 4280638522
-0.79515803 0.51060998 0.32457241 4280638522
-0.78564334 0.51050371 0.32587525 4280638522
-0.77663487 0.51094753 0.32694736 4280638522
-0.76526594 0.51189798 0.32870558 4280638522
-0.75495982 0.5107041 0.32543886 4280638522
-1.1105795 0.52280056 0.32573456 4280638522
-1.1083654 0.52163011 0.3242715 4280638522
-1.0803709 0.52072108 0.32863227 4280638522
-1.0730753 0.52081239 0.32146683 4280638522
-1.0644821 0.5210042 0.32284051 4280638522
-1.0554248 0.52146214 0.32436249 4280638522
-1.0454911 0.52196032 0.32500613 4280638522
-1.0355079 0.52224362 0.32370609 4280638522
-1.0246868 0.52294159 0.32528111 4280638522
-1.0140471 0.52434492 0.32518709 4280638522
-1.0049766 0.52361429 0.3261258 4280638522
-0.9969824 0.52219945 0.32462296 4280638522
-0.97034913 0.52098471 0.32745719 4280638522
-0.96504217 0.52115929 0.32597432 4280638522
-0.95888543 0.52134454 0.32365689 4280638522
-0.94388068 0.5217346 0.32852659 4280638522
-0.93460345 0.52053982 0.32512525 4280638522
-0.92464888 0.52076268 0.32477394 4280638522
-0.91531408 0.52150023 0.32570758 4280638522
-0.89595985 0.52001661 0.32987857 4280638522
-1.0813477 0.57716739 0.32034633 4280638522
-1.0738968 0.57645738 0.32531974 4280638522
-1.0683215 0.57510293 0.32556728 4280638522
-1.0567222 0.57772672 0.32939512 4280638522
-1.075996 0.58529669 0.32446566 4280638522
-1.0731626 0.59471089 0.3251462 4280638522
-1.0686659 0.59845394 0.32114193 4280638522
-1.0738975 0.60532606 0.32491973 4280638522
-1.0693649 0.6007508 0.32045946 4280638522
-1.0802993 0.61905879 0.32024625 4280638522
-1.0767635 0.61494172 0.32520604 4280638522
-1.0807575 0.62451684 0.32503918 4280638522
-1.0776267 0.62486446 0.32528293 4280638522
-1.0826612 0.63639683 0.32489854 4280638522
-1.0771947 0.63348264 0.3248921 4280638522
-1.0819489 0.64505774 0.32432213 4280638522
-1.0787901 0.64565176 0.3257463 4280638522
-1.0820835 0.65435243 0.32507408 4280638522
-1.07866 0.65781581 0.32370776 4280638522
-1.0826833 0.66496205 0.32566205 4280638522
-1.0789855 0.66387093 0.32422298 4280638522
-1.0828491 0.67509991 0.32511497 4280638522
-1.0791227 0.67546409 0.32316327 4280638522
-1.0842211 0.6851697 0.32535052 4280638522
-1.0798528 0.68114299 0.32998699 4280638522
-1.0863512 0.694996 0.32506019 4280638522
-1.0906606 0.70153797 0.32461745 4280638522
-1.0872993 0.70504093 0.32533112 4280638522
-1.0916159 0.71522218 0.32425159 4280638522
-1.0878171 0.71441656 0.32709709 4280638522
-1.101158 0.72818953 0.32281768 4280638522
-1.0936565 0.72506803 0.32525021 4280638522
-1.0890524 0.72247517 0.32351613 4280638522
-1.0958961 0.73539418 0.32504454 4280638522
-1.1007487 0.74747252 0.32766077 4280638522
-1.0965601 0.74509829 0.32460842 4280638522
-1.1008979 0.75618321 0.32516292 4280638522
-1.0974091 0.75490654 0.32486886 4280638522
-1.1030085 0.76543748 0.32593995 4280638522
-1.0988711 0.76289034 0.3242628 4280638522
-1.1053902 0.77450818 0.3241179 4280638522
-1.1050913 0.78525203 0.32508123 4280638522
-1.1035165 0.79451138 0.32471457 4280638522
-1.0987183 0.7978822 0.32609776 4280638522
-1.1113602 0.80690241 0.32547671 4280638522
-1.1056083 0.80391431 0.32459509 4280638522
-1.0993854 0.80007428 0.3254464 4280638522
-1.112057 0.81523395 0.32215703 4280638522
-1.1075552 0.81488782 0.32651022 4280638522
-1.1117467 0.82579339 0.32298219 4280638522
-1.1085175 0.82466513 0.32733303 4280638522
-1.1126567 0.83464873 0.32337025 4280638522
-1.1149218 0.84431243 0.32190913 4280638522
-1.1177998 0.85167414 0.32034284 4280638522
-0.6515466 0.40798885 0.33418983 4280638522
-0.64902133 0.40741566 0.33308044 4280638522
-0.65070885 0.41296268 0.33446655 4280638522
-0.64894325 0.41604266 0.33496317 4280638522
-0.64517885 0.42567295 0.33475801 4280638522
-0.64268577 0.43601513 0.33389872 4280638522
-0.64370173 0.44564191 0.3353233 4280638522
-0.65067744 0.45748758 0.3342998 4280638522
-0.64792031 0.45414594 0.33496961 4280638522
-0.65338725 0.46482852 0.33409959 4280638522
-0.64937085 0.46257076 0.33759522 4280638522
-0.66249716 0.47808972 0.33372527 4280638522
-0.65714467 0.47381973 0.33481905 4280638522
-0.68195307 0.48897028 0.33395094 4280638522
-0.67490572 0.48721436 0.33460814 4280638522
-0.66589934 0.48314521 0.3349728 4280638522
-0.7034809 0.49915171 0.33564579 4280638522
-0.69558108 0.49816635 0.33440346 4280638522
-0.68437922 0.49500138 0.33491969 4280638522
-0.67873335 0.49222457 0.33950257 4280638522
-0.75429565 0.50802255 0.33432114 4280638522
-0.74549192 0.50713539 0.33552703 4280638522
-0.73524398 0.50598967 0.33481741 4280638522
-0.72523993 0.50463808 0.33475682 4280638522
-0.71466821 0.50296122 0.3349382 4280638522
-0.70740825 0.5016982 0.33451295 4280638522
-1.122804 0.5185042 0.33640778 4280638522
-1.1140538 0.51911128 0.33510542 4280638522
-1.1054229 0.5195325 0.33402979 4280638522
-1.0983793 0.51730126 0.3300066 4280638522
-1.0638342 0.51901102 0.33022112 4280638522
-1.0573428 0.51910675 0.33142418 4280638522
-1.0025046 0.51954979 0.33537245 4280638522
-0.99501902 0.51948363 0.33380586 4280638522
-0.98360062 0.51758724 0.33353916 4280638522
-0.97372472 0.51878959 0.33508581 4280638522
-0.96683621 0.51901072 0.33279252 4280638522
-0.91579998 0.5190165 0.33463627 4280638522
-0.90312481 0.51983088 0.33507577 4280638522
-0.89669508 0.51784772 0.33188304 4280638522
-0.88451165 0.51762855 0.3356916 4280638522
-0.87502915 0.51718509 0.33457038 4280638522
-0.86638445 0.5163995 0.3337644 4280638522
-0.85445625 0.51700741 0.33610234 4280638522
-0.84506857 0.51662695 0.3346386 4280638522
-0.83502108 0.51584297 0.33441541 4280638522
-0.82502431 0.51457965 0.33482963 4280638522
-0.81478506 0.51453447 0.33538443 4280638522
-0.80561537 0.51407093 0.3350046 4280638522
-0.79437935 0.51312798 0.33601877 4280638522
-0.78529853 0.511886 0.33490703 4280638522
-0.77489746 0.51168251 0.33518663 4280638522
-0.76493162 0.51103926 0.33531651 4280638522
-0.75828546 0.51030141 0.332966 4280638522
-1.1251045 0.52147621 0.33688521 4280638522
-1.1132942 0.52270901 0.33222872 4280638522
-1.0970485 0.52009594 0.3361547 4280638522
-1.0832592 0.52145451 0.33480564 4280638522
-1.07322 0.52299368 0.33700484 4280638522
-1.0639902 0.52310884 0.33552721 4280638522
-1.0551082 0.52371514 0.33751106 4280638522
-1.0432049 0.52303571 0.33482075 4280638522
-1.0345436 0.52282196 0.33532116 4280638522
-1.0254221 0.52273583 0.33438465 4280638522
-1.0143477 0.52300996 0.33545333 4280638522
-1.0052618 0.52197337 0.33434469 4280638522
-0.99880987 0.52186602 0.33039582 4280638522
-0.98560643 0.5203352 0.33664462 4280638522
-0.96665084 0.52124739 0.33128369 4280638522
-0.9528355 0.52258986 0.33598858 4280638522
-0.94444579 0.52172816 0.33515108 4280638522
-0.93469912 0.52170223 0.33502388 4280638522
-0.92380542 0.5219965 0.33551055 4280638522
-0.91624463 0.52186078 0.33446476 4280638522
-0.90533799 0.52193362 0.33535218 4280638522
-0.89456165 0.52041155 0.33738583 4280638522
-0.8869791 0.52065152 0.33819848 4280638522
-1.0745789 0.57661974 0.33531818 4280638522
-1.0672088 0.57311064 0.33477044 4280638522
-1.0574406 0.57618636 0.33101007 4280638522
-1.0760239 0.58573312 0.33533192 4280638522
-1.0766869 0.5945099 0.3350957 4280638522
-1.0766057 0.60488081 0.3344585 4280638522
-1.0766134 0.61517125 0.33489519 4280638522
-1.0804814 0.62767005 0.33048499 4280638522
-1.0767963 0.62409115 0.33527759 4280638522
-1.0769564 0.63492095 0.33522043 4280638522
-1.0818965 0.64535052 0.33805785 4280638522
-1.0780625 0.64389384 0.33449614 4280638522
-1.0821804 0.65516043 0.33518738 4280638522
-1.0792452 0.65374005 0.33352679 4280638522
-1.0840466 0.66434669 0.33503839 4280638522
-1.082945 0.67432541 0.33452007 4280638522
-1.0792568 0.67886269 0.33986482 4280638522
-1.083155 0.68497938 0.33456963 4280638522
-1.0797507 0.6833421 0.33768639 4280638522
-1.0857915 0.69438666 0.33519545 4280638522
-1.0902013 0.7033968 0.33596447 4280638522
-1.0863404 0.70542485 0.33501381 4280638522
-1.0913824 0.71639585 0.33571979 4280638522
-1.0872613 0.71434951 0.33418238 4280638522
-1.0932831 0.7258395 0.33442718 4280638522
-1.0891131 0.72109747 0.33577424 4280638522
-1.0956663 0.73480207 0.33513984 4280638522
-1.1015676 0.74831438 0.33554634 4280638522
-1.097571 0.74431992 0.33491522 4280638522
-1.102991 0.75481343 0.3354457 4280638522
-1.0986935 0.75533301 0.33363524 4280638522
-1.1028053 0.76482427 0.33453637 4280638522
-1.0988249 0.76538295 0.33538327 4280638522
-1.1033159 0.77478915 0.33354315 4280638522
-1.0988445 0.77587652 0.33928773 4280638522
-1.1038741 0.78433388 0.33447129 4280638522
-1.1047584 0.7948038 0.33381307 4280638522
-1.102867 0.80421185 0.33312738 4280638522
-1.1057334 0.81362289 0.33117613 4280638522
-0.65120423 0.40834418 0.34578481 4280638522
-0.64890975 0.40871459 0.34484589 4280638522
-0.65014309 0.41166678 0.34884733 4280638522
-0.64752799 0.41523141 0.34418175 4280638522
-0.64394057 0.42501047 0.3455005 4280638522
-0.64151591 0.43561906 0.34556317 4280638522
-0.63949203 0.43560278 0.34499118 4280638522
-0.64460582 0.4450655 0.34533355 4280638522
-0.63984895 0.44285709 0.34305483 4280638522
-0.65058053 0.45614246 0.34562635 4280638522
-0.64798671 0.45475969 0.34487754 4280638522
-0.65290844 0.46553862 0.34501365 4280638522
-0.6488325 0.46189624 0.34414783 4280638522
-0.66113967 0.47815481 0.34544915 4280638522
-0.65732515 0.47443742 0.3447018 4280638522
-0.68158311 0.48929289 0.34402099 4280638522
-0.67570311 0.48876205 0.34315717 4280638522
-0.66446424 0.48474306 0.34504244 4280638522
-0.70226383 0.49997333 0.34114495 4280638522
-0.69302416 0.49851775 0.34564865 4280638522
-0.68530917 0.49456373 0.34457937 4280638522
-0.67414761 0.49054748 0.34574029 4280638522
-0.66818172 0.49093476 0.3481929 4280638522
-0.75435114 0.50875527 0.34471789 4280638522
-0.74483728 0.50732154 0.34507346 4280638522
-0.73512608 0.50615788 0.34522489 4280638522
-0.72540879 0.50540352 0.34469891 4280638522
-0.71605766 0.50344837 0.34477079 4280638522
-0.70508641 0.50221944 0.34536389 4280638522
-0.69748175 0.50093049 0.34577879 4280638522
-1.1205201 0.51903045 0.34145626 4280638522
-1.1110591 0.51952457 0.34104577 4280638522
-0.89193344 0.51867038 0.34799764 4280638522
-0.88520235 0.51741457 0.34498379 4280638522
-0.87529546 0.51802391 0.34582117 4280638522
-0.86452556 0.5194425 0.34476626 4280638522
-0.85490185 0.51718068 0.34503266 4280638522
-0.84517771 0.51607054 0.34519175 4280638522
-0.83425528 0.51655596 0.34563816 4280638522
-0.82611728 0.51573545 0.34438929 4280638522
-0.81528473 0.51611197 0.34476039 4280638522
-0.80471206 0.51505554 0.34590971 4280638522
-0.79469711 0.51295394 0.34478581 4280638522
-0.78502822 0.51177138 0.34467137 4280638522
-0.77445418 0.51200944 0.34467694 4280638522
-0.76520914 0.51110941 0.34530461 4280638522
-0.75782174 0.51080358 0.34516472 4280638522
-1.1221691 0.52140188 0.34165543 4280638522
-1.1113092 0.52466106 0.34734413 4280638522
-1.10431 0.52079564 0.34281716 4280638522
-1.0952637 0.52521139 0.34806961 4280638522
-1.083794 0.52491146 0.34617266 4280638522
-1.0754385 0.52354997 0.34425637 4280638522
-1.0638664 0.52378517 0.34497669 4280638522
-1.0540324 0.52422959 0.34574983 4280638522
-1.0439601 0.52418542 0.34529927 4280638522
-1.0358969 0.52327085 0.34396085 4280638522
-1.0242172 0.52425468 0.34485456 4280638522
-1.014932 0.52280146 0.34555498 4280638522
-1.0047129 0.52198768 0.34535086 4280638522
-0.99418372 0.52259046 0.34518337 4280638522
-0.98496348 0.5231635 0.34474397 4280638522
-0.97647202 0.52237916 0.34473687 4280638522
-0.9637655 0.52294278 0.34453592 4280638522
-0.954521 0.52333283 0.34581217 4280638522
-0.94558781 0.52156013 0.34376177 4280638522
-0.9354068 0.52241457 0.34300444 4280638522
-0.9249832 0.52346528 0.34549809 4280638522
-0.91630161 0.52242017 0.34524393 4280638522
-0.90512508 0.5220055 0.34547129 4280638522
-0.89576626 0.52084166 0.34437448 4280638522
-0.88763213 0.52086014 0.34250474 4280638522
-0.85754365 0.52051389 0.34828392 4280638522
-1.0773852 0.56837213 0.34750322 4280638522
-1.0758541 0.57593912 0.34531099 4280638522
-1.0686352 0.57298344 0.34382355 4280638522
-1.0774267 0.58566082 0.34540695 4280638522
-1.0803945 0.59504175 0.34218749 4280638522
-1.0760623 0.59428972 0.34464976 4280638522
-1.075654 0.6045301 0.3451156 4280638522
-1.0751932 0.61564648 0.34536839 4280638522
-1.0761228 0.62541068 0.34506881 4280638522
-1.080999 0.63726896 0.34451082 4280638522
-1.0780389 0.63455433 0.3453775 4280638522
-1.0824224 0.64551622 0.34558499 4280638522
-1.079337 0.64483023 0.34345919 4280638522
-1.0830983 0.65514797 0.34587643 4280638522
-1.0796405 0.65748912 0.34382561 4280638522
-1.0825717 0.66562301 0.34412912 4280638522
-1.0795072 0.66540253 0.3481015 4280638522
-1.0818924 0.67504925 0.34452972 4280638522
-1.0789403 0.67711705 0.34565106 4280638522
-1.0827571 0.68557727 0.34598431 4280638522
-1.0789151 0.68332213 0.34447119 4280638522
-1.0850947 0.69514954 0.34481043 4280638522
-1.0904087 0.70546627 0.34631878 4280638522
-1.0874738 0.70440054 0.34493378 4280638522
-1.0916406 0.71515667 0.34555897 4280638522
-1.0877631 0.71474302 0.34419301 4280638522
-1.0933652 0.72457695 0.34453666 4280638522
-1.0946118 0.73570931 0.34503648 4280638522
-1.1004034 0.74844748 0.34191981 4280638522
-1.0969242 0.74445248 0.34469432 4280638522
-1.1011364 0.75476825 0.34267473 4280638522
-1.098539 0.75366277 0.34459296 4280638522
-1.1013474 0.76218706 0.34226874 4280638522
-1.0973593 0.7681936 0.34240198 4280638522
-1.1008775 0.77695131 0.34063113 4280638522
-1.0988656 0.77220893 0.34148601 4280638522
-0.65075994 0.40874526 0.35118335 4280638522
-0.65164334 0.41164801 0.35032082 4280638522
-0.64686489 0.41580978 0.35621679 4280638522
-0.64498138 0.42604139 0.35548681 4280638522
-0.64468271 0.4359225 0.35479763 4280638522
-0.65072381 0.44817141 0.35656887 4280638522
-0.64743477 0.44502732 0.35509199 4280638522
-0.65155375 0.45523065 0.3544001 4280638522
-0.64884347 0.45353103 0.35345045 4280638522
-0.65315759 0.46372896 0.35371366 4280638522
-0.6482361 0.4675788 0.35931221 4280638522
-0.65445626 0.4744657 0.35521579 4280638522
-0.64938319 0.47134775 0.35819232 4280638522
-0.67219341 0.48747426 0.3559089 4280638522
-0.66500938 0.4851647 0.35379821 4280638522
-0.65666604 0.48257414 0.35675716 4280638522
-0.70165765 0.49869508 0.3580052 4280638522
-0.69413477 0.49855706 0.35508993 4280638522
-0.68418509 0.49620017 0.35489887 4280638522
-0.67623281 0.49185899 0.35495621 4280638522
-0.75382823 0.50921822 0.35496014 4280638522
-0.74520576 0.50736076 0.35465494 4280638522
-0.73449671 0.50637144 0.35480323 4280638522
-0.7247867 0.50561124 0.35481903 4280638522
-0.71446073 0.5048452 0.35560346 4280638522
-0.70493573 0.50261039 0.3549554 4280638522
-0.69702411 0.50068372 0.35230795 4280638522
-1.0244192 0.51927567 0.35689586 4280638522
-1.012851 0.51923746 0.35449472 4280638522
-1.0063092 0.51984686 0.35407901 4280638522
-0.89432698 0.51788568 0.35534891 4280638522
-0.88612443 0.51712185 0.35406679 4280638522
-0.87468874 0.51925671 0.35542339 4280638522
-0.86849362 0.51985341 0.35176206 4280638522
-0.8539626 0.51861769 0.35236853 4280638522
-0.84556961 0.5172075 0.35515943 4280638522
-0.83510649 0.51554954 0.35597563 4280638522
-0.82530284 0.5157764 0.35457274 4280638522
-0.8146351 0.51567632 0.35445169 4280638522
-0.80467141 0.51327634 0.35426536 4280638522
-0.79431176 0.51260298 0.35549501 4280638522
-0.78531653 0.51325125 0.35553885 4280638522
-0.77561045 0.51367092 0.35442784 4280638522
-0.76522547 0.51316363 0.35522881 4280638522
-0.75818157 0.51173162 0.35528314 4280638522
-1.1362303 0.52134782 0.35842815 4280638522
-1.1250434 0.52386463 0.35756224 4280638522
-1.1150924 0.52478355 0.35486111 4280638522
-1.1049176 0.5254401 0.35517579 4280638522
-1.0945747 0.52618778 0.35478491 4280638522
-1.085395 0.52552795 0.35514408 4280638522
-1.0758195 0.52423692 0.35532355 4280638522
-1.0657705 0.52398974 0.35444307 4280638522
-1.0554208 0.52318484 0.35499513 4280638522
-1.0454119 0.52279139 0.35532662 4280638522
-1.0338321 0.5237788 0.3546716 4280638522
-1.0248042 0.52285618 0.35451278 4280638522
-1.0147394 0.5218491 0.35460392 4280638522
-0.9956404 0.52140063 0.35511383 4280638522
-0.98660469 0.52297217 0.3535026 4280638522
-0.97375757 0.5250935 0.35489514 4280638522
-0.96463901 0.5240497 0.35547864 4280638522
-0.95537907 0.52305967 0.3544594 4280638522
-0.94408965 0.52362585 0.35473186 4280638522
-0.93399501 0.52441603 0.35537294 4280638522
-0.92591095 0.52385271 0.35451841 4280638522
-0.9147222 0.52339447 0.35475975 4280638522
-0.90481281 0.52214068 0.35523912 4280638522
-0.89741391 0.52071106 0.3545557 4280638522
-0.86347038 0.5204435 0.3558369 4280638522
-0.85542202 0.52083129 0.35589099 4280638522
-0.84845072 0.52123821 0.35871771 4280638522
-1.0804824 0.57972658 0.35136721 4280638522
-1.0744803 0.57621092 0.35414121 4280638522
-1.0687339 0.57667482 0.35841995 4280638522
-1.076053 0.58543986 0.3554467 4280638522
-1.07465 0.59499776 0.35472268 4280638522
-1.0750197 0.60510784 0.35525072 4280638522
-1.0770229 0.61475015 0.3548499 4280638522
-1.0811142 0.62426621 0.35740221 4280638522
-1.0777091 0.62518817 0.35401005 4280638522
-1.0816815 0.63496339 0.35160321 4280638522
-1.0771749 0.63477707 0.35623634 4280638522
-1.0816067 0.6454947 0.3515999 4280638522
-1.0764019 0.64454174 0.35731 4280638522
-1.0820855 0.65675825 0.35423017 4280638522
-1.0769595 0.65477014 0.35698989 4280638522
-1.0828644 0.66494513 0.35563871 4280638522
-1.0784765 0.66954923 0.35222194 4280638522
-1.0826916 0.67532504 0.35468599 4280638522
-1.07863 0.67289883 0.35038242 4280638522
-1.0844847 0.68488115 0.35547745 4280638522
-1.0905175 0.69688684 0.35531291 4280638522
-1.0867382 0.69465375 0.35390344 4280638522
-1.0918131 0.70571685 0.35366705 4280638522
-1.0889128 0.70253146 0.35473254 4280638522
-1.0918275 0.71426535 0.35259327 4280638522
-1.0877593 0.71682769 0.35487437 4280638522
-1.090891 0.72642344 0.35331285 4280638522
-1.0890334 0.72313333 0.35345584 4280638522
-1.0927022 0.73284334 0.35126615 4280638522
-0.64472687 0.41764373 0.3639949 4280638522
-0.64549071 0.424611 0.36415747 4280638522
-0.64539194 0.43490174 0.36427784 4280638522
-0.64517051 0.44462121 0.36540377 4280638522
-0.64554495 0.45505765 0.36644006 4280638522
-0.65088648 0.46836212 0.3640317 4280638522
-0.64807594 0.46356207 0.36503133 4280638522
-0.65299308 0.47578505 0.3651458 4280638522
-0.64935368 0.4710536 0.36896038 4280638522
-0.67440677 0.48881412 0.36310709 4280638522
-0.66312855 0.48770544 0.36562005 4280638522
-0.65697592 0.48362276 0.36517259 4280638522
-0.70178658 0.49925512 0.36538559 4280638522
-0.69452584 0.49785382 0.36470449 4280638522
-0.68492103 0.49495488 0.36480668 4280638522
-0.67737436 0.49210826 0.36404362 4280638522
-0.66660959 0.49064434 0.36655989 4280638522
-0.76092434 0.50964153 0.36830235 4280638522
-0.75426358 0.50902241 0.36293638 4280638522
-0.74394834 0.50781411 0.36498025 4280638522
-0.73532742 0.50709122 0.36459383 4280638522
-0.72554833 0.50746524 0.36491016 4280638522
-0.71461952 0.50652403 0.36548474 4280638522
-0.70522726 0.50317252 0.36521512 4280638522
-0.69584411 0.50050175 0.36795783 4280638522
-1.0132694 0.51975977 0.36091504 4280638522
-0.89525878 0.51800346 0.36225718 4280638522
-0.88719994 0.5189783 0.36406603 4280638522
-0.87653428 0.51922834 0.3624998 4280638522
-0.85125178 0.51915944 0.36571729 4280638522
-0.84436828 0.51763105 0.36482459 4280638522
-0.8352502 0.51617992 0.36478773 4280638522
-0.82597804 0.51619577 0.36425525 4280638522
-0.81498402 0.51823115 0.36600873 4280638522
-0.8053425 0.51650858 0.36503133 4280638522
-0.79526204 0.51450241 0.36550167 4280638522
-0.78485674 0.51429754 0.36509156 4280638522
-0.77447706 0.51416618 0.36547223 4280638522
-0.76510584 0.51233029 0.36471179 4280638522
-0.75475955 0.5108006 0.36565164 4280638522
-0.74668139 0.51060462 0.36902219 4280638522
-1.1417598 0.52127868 0.36385894 4280638522
-1.1348884 0.5216856 0.3648105 4280638522
-1.1270761 0.52209204 0.36423796 4280638522
-1.1125288 0.52499539 0.36502647 4280638522
-1.105082 0.52488363 0.36580107 4280638522
-1.0959922 0.52485061 0.3631568 4280638522
-1.0836557 0.52601051 0.36629239 4280638522
-1.0751653 0.52450311 0.36531889 4280638522
-1.0651208 0.52369779 0.36483517 4280638522
-1.0550243 0.5226711 0.36476731 4280638522
-1.0445116 0.52333575 0.36496475 4280638522
-1.0349092 0.52370256 0.36533508 4280638522
-1.0256195 0.52400202 0.36537567 4280638522
-1.0141855 0.52547711 0.36574748 4280638522
-1.0040908 0.52495939 0.36665693 4280638522
-0.99425834 0.5245145 0.36510512 4280638522
-0.98968834 0.52587765 0.36616391 4280638522
-0.97459036 0.52826905 0.36615047 4280638522
-0.96466821 0.52703995 0.36501506 4280638522
-0.95463371 0.52633679 0.36541033 4280638522
-0.94513708 0.52585357 0.36537981 4280638522
-0.93536752 0.5238111 0.36534727 4280638522
-0.92522246 0.52236098 0.36345857 4280638522
-0.91423702 0.52351302 0.36534441 4280638522
-0.90512699 0.52246398 0.36444139 4280638522
-0.89645022 0.52123219 0.36580074 4280638522
-0.88434219 0.52201807 0.36971831 4280638522
-0.87564868 0.52098852 0.36666116 4280638522
-0.86559647 0.52185744 0.36465693 4280638522
-0.85461849 0.52208042 0.36536747 4280638522
-0.84890962 0.52128786 0.36520529 4280638522
-1.0820733 0.56585705 0.36874083 4280638522
-1.0732985 0.57684517 0.36845836 4280638522
-1.0672199 0.57574159 0.36508554 4280638522
-1.0741613 0.58516657 0.36491615 4280638522
-1.0689441 0.58076441 0.36378369 4280638522
-1.07558 0.59464002 0.36438352 4280638522
-1.0751536 0.60557103 0.36522236 4280638522
-1.081986 0.61615169 0.36458778 4280638522
-1.0779666 0.61342055 0.36532676 4280638522
-1.0816844 0.62287492 0.36447462 4280638522
-1.0783931 0.62749285 0.36611187 4280638522
-1.0806798 0.63502032 0.36273283 4280638522
-1.0763085 0.63591135 0.3650243 4280638522
-1.0809015 0.64651543 0.36573377 4280638522
-1.07807 0.64474475 0.36453113 4280638522
-1.0818386 0.654984 0.36414784 4280638522
-1.0781957 0.65387052 0.36234203 4280638522
-1.0836307 0.66452307 0.36229956 4280638522
-1.0776008 0.66478515 0.36842334 4280638522
-1.0821931 0.67602926 0.36441231 4280638522
-1.0792581 0.67332125 0.36591849 4280638522
-1.0837587 0.68376982 0.36301714 4280638522
-1.0813854 0.69589394 0.3621757 4280638522
-1.0790634 0.69178128 0.36235449 4280638522
-0.64391458 0.41795486 0.37676215 4280638522
-0.63923484 0.41959849 0.37295896 4280638522
-0.64237601 0.42522895 0.3745321 4280638522
-0.63902479 0.42213237 0.37124968 4280638522
-0.64151967 0.43512291 0.37498316 4280638522
-0.63994712 0.43552464 0.37026629 4280638522
-0.64248735 0.44492936 0.37512434 4280638522
-0.64504099 0.4547292 0.37552491 4280638522
-0.65163612 0.46620795 0.37601352 4280638522
-0.64814645 0.46312472 0.37370577 4280638522
-0.65426612 0.47394425 0.37379238 4280638522
-0.66262317 0.48858717 0.37569824 4280638522
-0.65701735 0.48418677 0.37546039 4280638522
-0.70060444 0.49876913 0.37666154 4280638522
-0.69480461 0.49653202 0.3746888 4280638522
-0.68576878 0.49407533 0.37444293 4280638522
-0.6751802 0.49321544 0.37482035 4280638522
-0.66624868 0.49144527 0.37514079 4280638522
-0.75749779 0.50998753 0.37082693 4280638522
-0.74365234 0.50916618 0.37535408 4280638522
-0.73548138 0.50827187 0.37506959 4280638522
-0.72487336 0.50732785 0.37518844 4280638522
-0.71479559 0.50637072 0.37485221 4280638522
-0.70509684 0.50377578 0.37561625 4280638522
-0.69881123 0.50073987 0.37222591 4280638522
-0.85459864 0.51865816 0.37416673 4280638522
-0.84556288 0.51853442 0.3731887 4280638522
-0.83463347 0.51800907 0.37461945 4280638522
-0.82449824 0.51901895 0.37592572 4280638522
-0.81448275 0.51877981 0.37542453 4280638522
-0.80436939 0.51699817 0.37471783 4280638522
-0.79588312 0.5150314 0.37434587 4280638522
-0.78525305 0.51538604 0.37595952 4280638522
-0.77530724 0.513502 0.374634 4280638522
-0.76552045 0.51195633 0.37582228 4280638522
-0.75548363 0.51124233 0.37548903 4280638522
-0.7470395 0.51093715 0.37524366 4280638522
-1.1334873 0.52201182 0.37053481 4280638522
-1.1225895 0.52408522 0.37537327 4280638522
-1.1131004 0.52602905 0.37385792 4280638522
-1.1058728 0.52558374 0.37513423 4280638522
-1.0946655 0.52612549 0.3752695 4280638522
-1.0852826 0.52681011 0.37467757 4280638522
-1.0746101 0.52617967 0.37490994 4280638522
-1.0657969 0.52425897 0.37473127 4280638522
-1.0550345 0.52402449 0.37500244 4280638522
-1.0448092 0.52358097 0.37516254 4280638522
-1.0347617 0.52390325 0.37506813 4280638522
-1.0244348 0.52457112 0.37501106 4280638522
-1.0148659 0.52509004 0.37504971 4280638522
-1.0052812 0.52548051 0.37495965 4280638522
-0.99739474 0.52578127 0.37373281 4280638522
-0.98425263 0.52873272 0.37624165 4280638522
-0.97506982 0.52756029 0.37468937 4280638522
-0.96511364 0.52697057 0.37472865 4280638522
-0.95495594 0.52757025 0.37531072 4280638522
-0.94475079 0.52712685 0.37405717 4280638522
-0.93531364 0.52658933 0.37495691 4280638522
-0.92483687 0.5260371 0.37487799 4280638522
-0.91511309 0.52449721 0.37485674 4280638522
-0.90486622 0.52398878 0.37584469 4280638522
-0.89566994 0.52276105 0.37465733 4280638522
-0.88407624 0.52385294 0.37550151 4280638522
-0.87492841 0.52388912 0.37522662 4280638522
-0.86447132 0.52243716 0.37524 4280638522
-0.85538292 0.5215857 0.37710446 4280638522
-0.84145057 0.5201205 0.37835497 4280638522
-0.83908027 0.52015013 0.37602696 4280638522
-1.0968475 0.55890626 0.37209439 4280638522
-1.0915742 0.56350803 0.37180915 4280638522
-1.0863001 0.56601262 0.37542403 4280638522
-1.0812197 0.57468879 0.37610498 4280638522
-1.0777322 0.57612252 0.37384138 4280638522
-1.0807019 0.58585066 0.37728241 4280638522
-1.0770423 0.58558559 0.37488431 4280638522
-1.0809551 0.59109974 0.37694132 4280638522
-1.0772659 0.59401447 0.37432414 4280638522
-1.0744491 0.60509449 0.37442952 4280638522
-1.081897 0.61488771 0.37392288 4280638522
-1.077351 0.61356533 0.37576866 4280638522
-1.0817424 0.6241796 0.37172326 4280638522
-1.0774633 0.62381721 0.37586057 4280638522
-1.0752978 0.63474554 0.37445894 4280638522
-1.0774118 0.64435881 0.37303951 4280638522
-1.074736 0.65563887 0.37201038 4280638522
-1.0776092 0.66225505 0.3708823 4280638522
-0.64955282 0.40997729 0.38872913 4280638522
-0.64397508 0.41778204 0.38624525 4280638522
-0.6429739 0.42505875 0.38510162 4280638522
-0.64303237 0.43470421 0.38507831 4280638522
-0.64334321 0.44415084 0.38426784 4280638522
-0.64265364 0.45483899 0.38571501 4280638522
-0.6508404 0.46939644 0.38606226 4280638522
-0.64547849 0.46505776 0.38554788 4280638522
-0.6522063 0.47546905 0.38535583 4280638522
-0.64895058 0.47290924 0.38415769 4280638522
-0.66214925 0.4890728 0.38655767 4280638522
-0.65550679 0.4845928 0.38527969 4280638522
-0.70474005 0.49991482 0.38304722 4280638522
-0.69217163 0.49903905 0.38307679 4280638522
-0.68473822 0.49722627 0.38459846 4280638522
-0.67450213 0.49381176 0.38487315 4280638522
-0.6655373 0.49164042 0.38500041 4280638522
-0.65740424 0.49001867 0.38223815 4280638522
-0.74296808 0.50959045 0.38573188 4280638522
-0.73395962 0.50775254 0.38360643 4280638522
-0.72413731 0.50751728 0.38530016 4280638522
-0.71423268 0.50582671 0.38492683 4280638522
-0.70598978 0.50230396 0.38479766 4280638522
-0.69426394 0.50146031 0.3860305 4280638522
-0.68924528 0.50157058 0.38972279 4280638522
-0.84977144 0.51991183 0.38051966 4280638522
-0.83041567 0.5190205 0.38190937 4280638522
-0.82437211 0.5189141 0.38457954 4280638522
-0.81587982 0.51810235 0.384628 4280638522
-0.80463278 0.5180003 0.38493159 4280638522
-0.79485351 0.51619673 0.38534182 4280638522
-0.78483009 0.51455438 0.38521838 4280638522
-0.77453089 0.51346982 0.38500461 4280638522
-0.76515216 0.51226711 0.38473824 4280638522
-0.75559473 0.51118517 0.38473606 4280638522
-0.74668026 0.5115549 0.38498014 4280638522
-0.73603171 0.51014578 0.38546962 4280638522
-1.1034172 0.527174 0.38254505 4280638522
-1.0947173 0.52678221 0.38454077 4280638522
-1.0848725 0.52619505 0.38536367 4280638522
-1.0751249 0.52626157 0.38421509 4280638522
-1.0645012 0.52656639 0.3846553 4280638522
-1.0541918 0.52609545 0.38511819 4280638522
-1.0439184 0.52675688 0.38555053 4280638522
-1.0353287 0.52565432 0.38411945 4280638522
-1.0258234 0.52540445 0.38573322 4280638522
-1.0141858 0.52482164 0.3843464 4280638522
-0.99311221 0.52831739 0.38539481 4280638522
-0.98483181 0.5279128 0.38433239 4280638522
-0.97435981 0.52792281 0.38558438 4280638522
-0.9660129 0.52719432 0.38504675 4280638522
-0.95504498 0.52653909 0.38486159 4280638522
-0.94385463 0.52682364 0.38496381 4280638522
-0.93385011 0.52678984 0.38522568 4280638522
-0.92545265 0.5254752 0.38476783 4280638522
-0.91491944 0.52564955 0.38480517 4280638522
-0.90544212 0.52465689 0.38512662 4280638522
-0.89604211 0.52364707 0.38496029 4280638522
-0.88469213 0.52473295 0.38471767 4280638522
-0.87453324 0.52470595 0.38484088 4280638522
-0.86536652 0.52401978 0.38455579 4280638522
-0.85414553 0.52338392 0.38514936 4280638522
-0.84579724 0.52176982 0.38525447 4280638522
-0.8358885 0.52128345 0.38559666 4280638522
-0.82689428 0.52133864 0.38681227 4280638522
-1.104166 0.53065473 0.38689882 4280638522
-1.0973625 0.53123266 0.38902873 4280638522
-0.99302071 0.53102183 0.38911936 4280638522
-1.0778642 0.56853491 0.38353369 4280638522
-1.0813853 0.57152891 0.38139436 4280638522
-1.0757889 0.5758329 0.38622376 4280638522
-1.0806447 0.58431911 0.38066506 4280638522
-1.0778091 0.58397567 0.38460836 4280638522
-1.0740337 0.59440804 0.38391089 4280638522
-1.0716752 0.60568738 0.38256487 4280638522
-1.0693702 0.60263288 0.38308024 4280638522
-1.0751761 0.61154145 0.38092053 4280638522
-0.66071898 0.40315425 0.39304233 4280638522
-0.65513134 0.40656582 0.39088124 4280638522
-0.65132684 0.41268259 0.39492184 4280638522
-0.64565855 0.41698742 0.39291033 4280638522
-0.64382982 0.42522231 0.39446437 4280638522
-0.64239526 0.43566939 0.39570785 4280638522
-0.64241356 0.44601223 0.39551735 4280638522
-0.65086818 0.45763159 0.39965075 4280638522
-0.6452769 0.45503762 0.39525339 4280638522
-0.651833 0.46625713 0.39546949 4280638522
-0.64764196 0.46418399 0.39344293 4280638522
-0.65362704 0.47518972 0.39446339 4280638522
-0.67075014 0.48986313 0.39989129 4280638522
-0.66407335 0.48862553 0.39540809 4280638522
-0.65649354 0.48469111 0.39540008 4280638522
-0.69219899 0.4996362 0.39526784 4280638522
-0.6857633 0.49854171 0.39364538 4280638522
-0.67485267 0.49642089 0.39578101 4280638522
-0.66802657 0.4928945 0.39368564 4280638522
-0.75136429 0.50978404 0.3968358 4280638522
-0.74628139 0.50978422 0.3933987 4280638522
-0.73003823 0.50926393 0.39760205 4280638522
-0.72442281 0.50831282 0.39496964 4280638522
-0.7155726 0.50584757 0.39455566 4280638522
-0.70526057 0.50417161 0.39548737 4280638522
-0.69607008 0.50237626 0.39471644 4280638522
-0.68379831 0.50050628 0.39809561 4280638522
-0.82410258 0.51887172 0.39405355 4280638522
-0.81557077 0.51790601 0.39238077 4280638522
-0.80377805 0.51744759 0.39519483 4280638522
-0.79548109 0.51622021 0.39565137 4280638522
-0.78491062 0.51628536 0.39532456 4280638522
-0.7755428 0.51499999 0.39555576 4280638522
-0.76474154 0.51306951 0.39426687 4280638522
-0.75485694 0.51220661 0.39576676 4280638522
-0.74361944 0.51058793 0.39525861 4280638522
-0.73480374 0.51068741 0.39533201 4280638522
-0.72795153 0.51116419 0.39557788 4280638522
-1.0917721 0.52904886 0.39246359 4280638522
-1.0844786 0.52621824 0.39310518 4280638522
-1.0744945 0.52447486 0.39469364 4280638522
-1.0630605 0.5256713 0.3945564 4280638522
-1.0547968 0.52761346 0.39293557 4280638522
-1.0453135 0.52841532 0.39577708 4280638522
-1.034047 0.52797723 0.3950493 4280638522
-1.024573 0.52721208 0.39503878 4280638522
-1.0147585 0.52798295 0.39567289 4280638522
-1.001667 0.52872169 0.39891288 4280638522
-0.99473697 0.52847409 0.39500272 4280638522
-0.98592049 0.52689916 0.39485481 4280638522
-0.97647756 0.52685356 0.39481696 4280638522
-0.96441275 0.526811 0.39446342 4280638522
-0.95514899 0.52674484 0.39556423 4280638522
-0.94426692 0.52599031 0.39442825 4280638522
-0.9352234 0.52548414 0.39525208 4280638522
-0.92413157 0.52613968 0.39577723 4280638522
-0.91558212 0.52492863 0.39376137 4280638522
-0.90369767 0.52569747 0.39474562 4280638522
-0.89473271 0.52566618 0.39583099 4280638522
-0.88538778 0.52493978 0.39434412 4280638522
-0.87419701 0.52656031 0.39481589 4280638522
-0.86486661 0.52606153 0.39586613 4280638522
-0.85522598 0.52356005 0.3948279 4280638522
-0.84651083 0.52230722 0.39545643 4280638522
-0.83469522 0.52317911 0.39467981 4280638522
-0.82743406 0.52190763 0.39549819 4280638522
-0.81345558 0.5201928 0.39654842 4280638522
-0.80705559 0.52038372 0.39323175 4280638522
-1.0915815 0.53134835 0.39091238 4280638522
-1.0023317 0.53090537 0.39826405 4280638522
-0.99725294 0.5309689 0.39327604 4280638522
-1.0742222 0.57081628 0.39001 4280638522
-0.64532536 0.41509512 0.40888384 4280638522
-0.63955534 0.41952008 0.40670207 4280638522
-0.64276665 0.42511326 0.40620741 4280638522
-0.63852781 0.42325512 0.40348268 4280638522
-0.64204371 0.43487954 0.40492073 4280638522
-0.64389664 0.44481504 0.40428993 4280638522
-0.65002412 0.45485812 0.40047488 4280638522
-0.64645845 0.45482752 0.40557051 4280638522
-0.65059918 0.46620688 0.40491891 4280638522
-0.64885312 0.46460065 0.40550965 4280638522
-0.65287179 0.47556889 0.40455374 4280638522
-0.6495533 0.47206488 0.40547916 4280638522
-0.66308624 0.48762047 0.40571392 4280638522
-0.65649873 0.48411345 0.40458888 4280638522
-0.68279338 0.49746704 0.40604389 4280638522
-0.67549276 0.49354768 0.40474284 4280638522
-0.66748923 0.49078035 0.40527296 4280638522
-0.73411447 0.50907344 0.40624079 4280638522
-0.72329187 0.50815666 0.4023059 4280638522
-0.71488976 0.50656879 0.40483811 4280638522
-0.70488745 0.50445533 0.40468976 4280638522
-0.69493926 0.50252676 0.4053272 4280638522
-0.68657899 0.50123233 0.40464902 4280638522
-0.86150926 0.51998776 0.40405539 4280638522
-0.83222753 0.51954854 0.40308878 4280638522
-0.82700843 0.51975971 0.40242848 4280638522
-0.81228876 0.51838362 0.40103775 4280638522
-0.80386138 0.51899123 0.40460238 4280638522
-0.79464108 0.51863825 0.40562978 4280638522
-0.78521919 0.51662427 0.40508786 4280638522
-0.77556145 0.51500636 0.4045971 4280638522
-0.765257 0.51429242 0.40559274 4280638522
-0.75565875 0.51233602 0.40462771 4280638522
-0.74411207 0.51221716 0.40511534 4280638522
-0.73557621 0.51119971 0.40433371 4280638522
-0.72366226 0.51135147 0.40653619 4280638522
-0.71968597 0.51013982 0.40595961 4280638522
-1.0510182 0.52894676 0.40135929 4280638522
-1.0444263 0.5292117 0.40236399 4280638522
-1.0349902 0.52963746 0.4042944 4280638522
-1.0239326 0.52840662 0.40373132 4280638522
-1.0154265 0.52832252 0.40623888 4280638522
-1.0052594 0.52857465 0.40553656 4280638522
-0.9957394 0.52882272 0.40483525 4280638522
-0.98500746 0.52691764 0.4045437 4280638522
-0.97548622 0.52550077 0.40413812 4280638522
-0.96178657 0.52807653 0.4029125 4280638522
-0.95403832 0.52825999 0.40587318 4280638522
-0.94728374 0.5274778 0.40447479 4280638522
-0.93517619 0.52843416 0.40589747 4280638522
-0.92470813 0.52800423 0.40298012 4280638522
-0.91489822 0.52775609 0.40353012 4280638522
-0.90421665 0.52883184 0.40519276 4280638522
-0.89506513 0.52763408 0.40531304 4280638522
-0.88523817 0.52646387 0.40550876 4280638522
-0.8739441 0.52686596 0.40515456 4280638522
-0.86537284 0.52395564 0.40495941 4280638522
-0.85557371 0.52145094 0.40460885 4280638522
-0.84407711 0.52214968 0.40368611 4280638522
-0.83582568 0.52148491 0.40448055 4280638522
-0.82422709 0.52116203 0.40630358 4280638522
-0.81558001 0.52040446 0.40486676 4280638522
-0.80598098 0.52104157 0.40787864 4280638522
-1.0542965 0.53114855 0.4032473 4280638522
-1.045687 0.53152579 0.40601233 4280638522
-1.0348946 0.53203917 0.409098 4280638522
-1.0246042 0.53015912 0.40675965 4280638522
-1.0181758 0.53043973 0.40639699 4280638522
-1.0065639 0.53085238 0.40242076 4280638522
-0.96098042 0.53062218 0.40820226 4280638522
-0.9555552 0.53058934 0.40900347 4280638522
-0.92388362 0.53016853 0.40721413 4280638522
-0.91642576 0.53041202 0.40839911 4280638522
-0.90608054 0.5308916 0.40915871 4280638522
-0.65075833 0.40916049 0.41770339 4280638522
-0.65071523 0.41267347 0.41405803 4280638522
-0.6484763 0.41593179 0.41514349 4280638522
-0.64641476 0.4250921 0.41437882 4280638522
-0.64391977 0.43560162 0.41538364 4280638522
-0.64322472 0.44517303 0.41490492 4280638522
-0.64434892 0.45433533 0.41472772 4280638522
-0.65091264 0.46887788 0.41699204 4280638522
-0.64663422 0.46481481 0.41548556 4280638522
-0.65351379 0.47510734 0.41488549 4280638522
-0.64932346 0.47203717 0.41235316 4280638522
-0.66324472 0.48794001 0.41510651 4280638522
-0.65744245 0.48286343 0.4141418 4280638522
-0.69076526 0.49889275 0.41403872 4280638522
-0.6853773 0.49805394 0.4148193 4280638522
-0.67569941 0.49403492 0.41492006 4280638522
-0.66800421 0.49151731 0.41576988 4280638522
-0.73116207 0.50994343 0.41953832 4280638522
-0.72513038 0.5093298 0.41705844 4280638522
-0.71443307 0.50857383 0.4146679 4280638522
-0.70407766 0.50694644 0.4155845 4280638522
-0.69514352 0.50334978 0.41505292 4280638522
-0.68844908 0.50108188 0.41465425 4280638522
-0.80318528 0.51940572 0.41280192 4280638522
-0.79528296 0.51848269 0.41293126 4280638522
-0.78396815 0.51808375 0.41609994 4280638522
-0.77432948 0.51578617 0.41469803 4280638522
-0.76426065 0.51413304 0.41549507 4280638522
-0.75458783 0.5138858 0.41461369 4280638522
-0.74505341 0.51286888 0.4146494 4280638522
-0.73516506 0.51214558 0.41549367 4280638522
-0.72509605 0.51112169 0.4140099 4280638522
-0.71822739 0.51060688 0.41260657 4280638522
-1.0226071 0.52818394 0.4120557 4280638522
-1.0146176 0.52759117 0.41307443 4280638522
-1.0051907 0.52726001 0.41518641 4280638522
-0.99421024 0.52779627 0.41495594 4280638522
-0.98517191 0.52820885 0.41305494 4280638522
-0.97884405 0.52798587 0.41352278 4280638522
-0.96313173 0.52836543 0.41770905 4280638522
-0.95471764 0.52779353 0.41288224 4280638522
-0.94437939 0.52837604 0.41548422 4280638522
-0.93538779 0.52762711 0.41443586 4280638522
-0.92626631 0.52803296 0.41459826 4280638522
