# .PCD v0.7 - Point Cloud Data file format
VERSION 0.7
FIELDS x y z rgba
SIZE 4 4 4 4
TYPE F F F U
COUNT 1 1 1 1
WIDTH 1087
HEIGHT 1
VIEWPOINT 0 0 0 1 0 0 0
POINTS 1087
DATA ascii
-1.1074647 0.52069229 0.27394226 4278821823
-1.0843534 0.52144641 0.27555314 4278821823
-1.0749693 0.52180403 0.2750991 4278821823
-1.0649896 0.5215891 0.27577564 4278821823
-1.0556706 0.52095991 0.2735714 4278821823
-1.0464331 0.52104986 0.27389711 4278821823
-1.0378039 0.52109748 0.27520975 4278821823
-1.0251851 0.52188706 0.27812642 4278821823
-1.0118084 0.52017891 0.27840239 4278821823
-1.0052334 0.52020746 0.27490142 4278821823
-0.99712199 0.5216347 0.27762347 4278821823
-0.95488274 0.52022362 0.27780914 4278821823
-1.0809634 0.55769646 0.27682692 4278821823
-1.078537 0.55782151 0.27248704 4278821823
-1.0813535 0.56556934 0.27373025 4278821823
-1.0753429 0.56744856 0.27584121 4278821823
-1.0691117 0.56744903 0.27247894 4278821823
-1.0733565 0.57486045 0.27491057 4278821823
-1.0685971 0.5760141 0.27460384 4278821823
-1.080012 0.5895133 0.27892935 4278821823
-1.0728501 0.58504432 0.27575243 4278821823
-1.068821 0.5851627 0.27450782 4278821823
-1.0819845 0.59505337 0.27700552 4278821823
-1.0729748 0.5944677 0.27519 4278821823
-1.068523 0.59509951 0.27448303 4278821823
-1.081259 0.606664 0.27321917 4278821823
-1.0734242 0.60533273 0.27517855 4278821823
-1.0684707 0.60443521 0.27381477 4278821823
-1.08128 0.61531299 0.27234015 4278821823
-1.0744247 0.61524564 0.27521729 4278821823
-1.0694588 0.61352515 0.27204221 4278821823
-1.0811106 0.6262396 0.27445033 4278821823
-1.0750566 0.62525934 0.27552524 4278821823
-1.1020762 0.63682657 0.27579188 4278821823
-1.0815294 0.63566214 0.27553588 4278821823
-1.0767039 0.63439876 0.27514249 4278821823
-1.1024083 0.64501995 0.2755298 4278821823
-1.081906 0.64640111 0.27601832 4278821823
-1.077168 0.64404815 0.2741684 4278821823
-1.1100657 0.65975761 0.27684426 4278821823
-1.1073004 0.65432465 0.27452895 4278821823
-1.0825778 0.6561349 0.27494839 4278821823
-1.077925 0.65429109 0.27475017 4278821823
-1.1102469 0.66520333 0.27529612 4278821823
-1.0829225 0.66533202 0.27514771 4278821823
-1.0788727 0.66527027 0.27434573 4278821823
-1.1106364 0.67480713 0.27498889 4278821823
-1.0904174 0.67969108 0.27491048 4278821823
-1.0835961 0.6750145 0.27512935 4278821823
-1.0792631 0.67414451 0.27592847 4278821823
-1.1110811 0.68578297 0.27463779 4278821823
-1.0906916 0.6855092 0.27342409 4278821823
-1.0851474 0.68490177 0.27559108 4278821823
-1.0792948 0.68289948 0.2720606 4278821823
-1.1115037 0.69501674 0.27603334 4278821823
-1.0910114 0.69688135 0.27543676 4278821823
-1.0868874 0.69491088 0.27503714 4278821823
-1.0796692 0.69012916 0.27149677 4278821823
-1.1131361 0.70493871 0.27547652 4278821823
-1.091463 0.70601094 0.27490172 4278821823
-1.0872884 0.70471722 0.27591208 4278821823
-1.1128515 0.71546578 0.27467349 4278821823
-1.0925772 0.71495378 0.27559742 4278821823
-1.0886923 0.71354574 0.27406314 4278821823
-1.1161917 0.72441137 0.2748214 4278821823
-1.1007441 0.72597963 0.27793208 4278821823
-1.0940828 0.72510976 0.27405569 4278821823
-1.0887195 0.72346234 0.27379191 4278821823
-1.1244683 0.73599017 0.27485284 4278821823
-1.1199386 0.73109251 0.27361315 4278821823
-1.1013207 0.73480004 0.27469957 4278821823
-1.0959915 0.73403466 0.27411002 4278821823
-1.0895982 0.73051333 0.27592769 4278821823
-1.1265756 0.74500972 0.27544597 4278821823
-1.1015292 0.74654239 0.27502272 4278821823
-1.0974613 0.74462277 0.27508333 4278821823
-1.1340773 0.7559517 0.27682337 4278821823
-1.1268989 0.75418973 0.27344668 4278821823
-1.102375 0.75532132 0.27457955 4278821823
-1.0986195 0.75447416 0.27463165 4278821823
-1.1344419 0.76508194 0.27633241 4278821823
-1.1272856 0.76471514 0.2717241 4278821823
-1.1105989 0.76307619 0.2717247 4278821823
-1.103864 0.76482534 0.27573654 4278821823
-1.0979253 0.76466531 0.2753455 4278821823
-1.1347946 0.77477145 0.27463016 4278821823
-1.1275101 0.77025074 0.27154702 4278821823
-1.11069 0.77529454 0.27373958 4278821823
-1.1049858 0.77416056 0.27564904 4278821823
-1.099211 0.77252859 0.27510709 4278821823
-1.1422952 0.78439432 0.27786842 4278821823
-1.1351799 0.78449416 0.27400976 4278821823
-1.1112772 0.78632158 0.27501202 4278821823
-1.1062592 0.78462869 0.27471998 4278821823
-1.0994302 0.78562981 0.27673078 4278821823
-1.1426255 0.79240799 0.27779856 4278821823
-1.136871 0.79592091 0.27415746 4278821823
-1.1125952 0.79602069 0.27528116 4278821823
-1.1074213 0.79464298 0.27406111 4278821823
-1.1431401 0.80721486 0.27434099 4278821823
-1.1377268 0.80391806 0.27574033 4278821823
-1.1139615 0.80492622 0.274755 4278821823
-1.1080059 0.80398941 0.27418247 4278821823
-1.1509449 0.81969452 0.27584931 4278821823
-1.1459537 0.81615537 0.27543664 4278821823
-1.1390761 0.81413722 0.27464405 4278821823
-1.1213183 0.81825376 0.27446777 4278821823
-1.1152703 0.81468552 0.27471688 4278821823
-1.1082284 0.81457889 0.27611274 4278821823
-1.150424 0.82591796 0.27714747 4278821823
-1.149856 0.82423919 0.27444151 4278821823
-1.1213129 0.82678205 0.27595076 4278821823
-1.1170706 0.8246513 0.27517506 4278821823
-1.1094655 0.82325917 0.27450594 4278821823
-1.1534457 0.83441293 0.2750493 4278821823
-1.1227286 0.83528787 0.27465919 4278821823
-1.1180634 0.83337516 0.27434346 4278821823
-1.1630284 0.84632504 0.27445745 4278821823
-1.1569827 0.84364474 0.27556252 4278821823
-1.1312319 0.84674686 0.27515739 4278821823
-1.1241292 0.84518582 0.27526447 4278821823
-1.1185956 0.84422839 0.27582926 4278821823
-1.166513 0.8545624 0.2750878 4278821823
-1.1579885 0.85083693 0.27518296 4278821823
-1.1324399 0.85646296 0.27640855 4278821823
-1.1254691 0.85456508 0.27473506 4278821823
-1.1194842 0.85207278 0.27478442 4278821823
-1.1726009 0.86577672 0.27432051 4278821823
-1.1670233 0.86125803 0.27581459 4278821823
-1.1414236 0.86693114 0.27849525 4278821823
-1.1339946 0.86484671 0.27406922 4278821823
-1.1274568 0.86272305 0.27473912 4278821823
-1.1729027 0.87221718 0.27553797 4278821823
-1.1427071 0.87639022 0.27514717 4278821823
-1.1370516 0.87365794 0.274645 4278821823
-1.1265033 0.87003911 0.27998513 4278821823
-1.1440053 0.88102198 0.27331835 4278821823
-0.65222311 0.39526746 0.28376028 4278821823
-0.6435141 0.39807591 0.28567347 4278821823
-0.65343094 0.40484297 0.2839666 4278821823
-0.64574337 0.40648875 0.28456065 4278821823
-0.6532408 0.41569567 0.28546235 4278821823
-0.64440435 0.41479743 0.28498015 4278821823
-0.63947833 0.41845009 0.28279752 4278821823
-0.65171111 0.42553008 0.28552905 4278821823
-0.6428566 0.42403534 0.28550434 4278821823
-0.6389572 0.42676339 0.28343958 4278821823
-0.65132189 0.4344272 0.28334141 4278821823
-0.64361489 0.43473324 0.28477955 4278821823
-0.63802832 0.43556452 0.28548288 4278821823
-0.65060973 0.44540074 0.28115949 4278821823
-0.64245546 0.44572487 0.28539473 4278821823
-0.63824588 0.44499093 0.28503311 4278821823
-0.65220654 0.45685098 0.28644949 4278821823
-0.64369678 0.45565993 0.28477427 4278821823
-0.63907731 0.45246324 0.28443724 4278821823
-0.66033745 0.46727109 0.28793317 4278821823
-0.65185559 0.46762317 0.28532201 4278821823
-0.64629042 0.46490398 0.28503454 4278821823
-0.6702202 0.47928831 0.28887513 4278821823
-0.66219544 0.47806728 0.28432825 4278821823
-0.65529025 0.47487301 0.28485322 4278821823
-0.64879799 0.47190657 0.285707 4278821823
-0.68257731 0.48887697 0.28418586 4278821823
-0.67448682 0.48672175 0.28516626 4278821823
-0.6662879 0.48257944 0.28481302 4278821823
-0.65855569 0.48076135 0.28578085 4278821823
-0.75058335 0.49996272 0.28101519 4278821823
-0.74340653 0.49951535 0.28317747 4278821823
-0.73393244 0.49916333 0.28443465 4278821823
-0.72347957 0.49873659 0.28448501 4278821823
-0.71447855 0.49797994 0.28504795 4278821823
-0.70462745 0.49682292 0.28512582 4278821823
-0.69494164 0.49441352 0.28475457 4278821823
-0.6858744 0.49218506 0.28503594 4278821823
-0.67856669 0.49078688 0.2869204 4278821823
-0.94715762 0.50977737 0.28263032 4278821823
-0.92523217 0.50869304 0.28278336 4278821823
-0.9143908 0.50904959 0.28338587 4278821823
-0.90933073 0.50944221 0.28263894 4278821823
-0.89141321 0.50833207 0.28335023 4278821823
-0.88277364 0.50930923 0.28294152 4278821823
-0.87318188 0.50869763 0.28380895 4278821823
-0.86464268 0.50887376 0.28395429 4278821823
-0.85441303 0.50868136 0.28534341 4278821823
-0.84383714 0.50866759 0.28364152 4278821823
-0.83483893 0.50820124 0.28369015 4278821823
-0.82483244 0.50794011 0.28464684 4278821823
-0.81494612 0.50785685 0.28366944 4278821823
-0.80406684 0.50742918 0.2848247 4278821823
-0.79488999 0.50684863 0.2853879 4278821823
-0.78533131 0.50628078 0.28507784 4278821823
-0.77532619 0.50606948 0.28459486 4278821823
-0.76461375 0.50478548 0.28504202 4278821823
-0.75508273 0.50392032 0.28491557 4278821823
-0.74470621 0.50326478 0.28536588 4278821823
-0.73514217 0.5021773 0.28515062 4278821823
-0.72549099 0.50152528 0.2854667 4278821823
-0.71718311 0.50110596 0.28711072 4278821823
-0.70848924 0.50044703 0.28430575 4278821823
-1.1221445 0.51745963 0.2841484 4278821823
-1.1124845 0.51732987 0.28377533 4278821823
-1.1043686 0.51617056 0.28387702 4278821823
-1.0947478 0.51553416 0.28448498 4278821823
-1.0848252 0.51519853 0.28494233 4278821823
-1.0745701 0.51560909 0.28520843 4278821823
-1.0657787 0.51589471 0.28489271 4278821823
-1.0548093 0.5159328 0.28440335 4278821823
-1.0453559 0.51573241 0.28546521 4278821823
-1.0352143 0.51570004 0.28512809 4278821823
-1.0251291 0.51633292 0.28481349 4278821823
-1.0147568 0.5158326 0.28509158 4278821823
-1.005597 0.51536423 0.28508273 4278821823
-0.9950608 0.51582181 0.28478497 4278821823
-0.98461926 0.51630247 0.28569177 4278821823
-0.97472352 0.51575726 0.28512123 4278821823
-0.96550691 0.51496178 0.28432673 4278821823
-0.95459658 0.51499224 0.28490162 4278821823
-0.94498473 0.51444864 0.28464425 4278821823
-0.93478739 0.51465684 0.28531253 4278821823
-0.92514509 0.51456541 0.28514421 4278821823
-0.91447657 0.514422 0.28551769 4278821823
-0.90487462 0.51388234 0.28538769 4278821823
-0.89515632 0.51291245 0.28468153 4278821823
-0.8851217 0.51281494 0.28538164 4278821823
-0.87457359 0.51280648 0.28509715 4278821823
-0.86530805 0.51207232 0.28576219 4278821823
-0.85522252 0.51243514 0.28685531 4278821823
-0.84486473 0.51192349 0.28557423 4278821823
-0.83564347 0.51151884 0.28652915 4278821823
-0.82566667 0.51133645 0.28678033 4278821823
-0.81504244 0.51094514 0.28478047 4278821823
-0.8047542 0.51118135 0.28643548 4278821823
-0.79441774 0.51142579 0.28371969 4278821823
-0.78557462 0.51090288 0.28372574 4278821823
-0.77612722 0.51020074 0.28766781 4278821823
-0.7642557 0.51231712 0.28515089 4278821823
-1.1210196 0.52319735 0.2883808 4278821823
-1.116318 0.52266622 0.28375939 4278821823
-1.1043802 0.52194482 0.28548077 4278821823
-1.09451 0.5212 0.28798738 4278821823
-1.0809516 0.52244973 0.28556725 4278821823
-1.0753118 0.52330774 0.28488156 4278821823
-1.0662221 0.52196211 0.28481853 4278821823
-1.0564394 0.52051651 0.28608364 4278821823
-1.0442168 0.52174026 0.28641844 4278821823
-1.0359781 0.52177036 0.2849735 4278821823
-1.0251513 0.52262419 0.28515798 4278821823
-1.0152392 0.52243692 0.28541461 4278821823
-1.0052798 0.52180851 0.28495252 4278821823
-0.9982453 0.52091503 0.28064415 4278821823
-0.9741956 0.52002478 0.28801212 4278821823
-0.96341097 0.52041066 0.28650451 4278821823
-0.95762336 0.52069342 0.28569609 4278821823
-0.94448912 0.52125072 0.287283 4278821823
-0.92157036 0.52037793 0.28962529 4278821823
-0.91139311 0.52030122 0.2890957 4278821823
-1.0827831 0.5576027 0.28008181 4278821823
-1.0790957 0.5599001 0.28283882 4278821823
-1.0809653 0.5651108 0.28717351 4278821823
-1.0759889 0.5671916 0.2847515 4278821823
-1.0806675 0.57341033 0.28381708 4278821823
-1.074609 0.57531279 0.28546599 4278821823
-1.0692627 0.5762316 0.28213388 4278821823
-1.0809485 0.58560097 0.28457355 4278821823
-1.0736921 0.58493972 0.28484342 4278821823
-1.0690905 0.5862807 0.28654721 4278821823
-1.0807201 0.59473896 0.28362095 4278821823
-1.0735886 0.59494984 0.28530824 4278821823
-1.0686527 0.59362179 0.28456083 4278821823
-1.074519 0.60506254 0.28524607 4278821823
-1.0690676 0.60353899 0.28350234 4278821823
-1.0751419 0.61509556 0.2848269 4278821823
-1.069824 0.61030996 0.28184673 4278821823
-1.0807831 0.62654912 0.28751144 4278821823
-1.0762148 0.62493986 0.28500336 4278821823
-1.1023625 0.6371209 0.28535473 4278821823
-1.0818627 0.63553822 0.28602672 4278821823
-1.0770137 0.63415962 0.28423554 4278821823
-1.1026946 0.64531422 0.28509262 4278821823
-1.0818763 0.64638668 0.28350917 4278821823
-1.0776259 0.64498454 0.28538543 4278821823
-1.1101842 0.65695757 0.28502452 4278821823
-1.1059768 0.65273845 0.28406781 4278821823
-1.0825218 0.65595472 0.28452343 4278821823
-1.0777596 0.65460116 0.28544733 4278821823
-1.1105146 0.66472709 0.28532118 4278821823
-1.0826402 0.66523665 0.2853384 4278821823
-1.0782843 0.66486251 0.28487366 4278821823
-1.1117263 0.6755417 0.28478825 4278821823
-1.0917336 0.67796451 0.2866202 4278821823
-1.083195 0.67531037 0.28474075 4278821823
-1.0792093 0.6736905 0.2862083 4278821823
-1.1132216 0.6848911 0.28391558 4278821823
-1.0910103 0.68666661 0.28404 4278821823
-1.0848718 0.68470174 0.28513339 4278821823
-1.0794108 0.68335313 0.28455138 4278821823
-1.1123753 0.69445181 0.2850208 4278821823
-1.0910823 0.69709772 0.28644544 4278821823
-1.0859365 0.69537967 0.28445521 4278821823
-1.0793142 0.69230646 0.28326097 4278821823
-1.1143162 0.7049678 0.28452265 4278821823
-1.0916678 0.70619988 0.28446874 4278821823
-1.0874952 0.70400596 0.2845068 4278821823
-1.1172607 0.71512979 0.28477541 4278821823
-1.1016773 0.7195853 0.28897911 4278821823
-1.0932715 0.71575296 0.28500557 4278821823
-1.0881283 0.71409339 0.28516018 4278821823
-1.1200454 0.72591847 0.28482127 4278821823
-1.1180485 0.72390717 0.28475216 4278821823
-1.1005666 0.72763908 0.28311425 4278821823
-1.0948864 0.7252298 0.28514895 4278821823
-1.0893372 0.72326446 0.28146893 4278821823
-1.1212192 0.73498952 0.28470674 4278821823
-1.1133271 0.73148066 0.28691477 4278821823
-1.1010268 0.73508096 0.28428721 4278821823
-1.0957472 0.734649 0.28507918 4278821823
-1.0896449 0.73532534 0.28316379 4278821823
-1.1339362 0.74590862 0.28641319 4278821823
-1.1267443 0.74327022 0.28384328 4278821823
-1.1019452 0.74596816 0.28551921 4278821823
-1.0976733 0.74341941 0.28477585 4278821823
-1.1342973 0.75560653 0.28498909 4278821823
-1.102151 0.75589168 0.28542367 4278821823
-1.0985662 0.7558133 0.2845414 4278821823
-1.1346917 0.76533884 0.28467777 4278821823
-1.1111345 0.76681232 0.28193003 4278821823
-1.1033753 0.76510048 0.28504199 4278821823
-1.0989605 0.76417655 0.28563991 4278821823
-1.1350862 0.77507108 0.28436643 4278821823
-1.1116109 0.77630126 0.28531605 4278821823
-1.1047056 0.77456981 0.28530633 4278821823
-1.0994666 0.7721017 0.28412446 4278821823
-1.1355222 0.78484613 0.28544596 4278821823
-1.1121107 0.78669643 0.28519195 4278821823
-1.1064612 0.7845161 0.2845495 4278821823
-1.1416218 0.79680431 0.28760302 4278821823
-1.1374203 0.79593158 0.28423387 4278821823
-1.1123129 0.79584509 0.28587404 4278821823
-1.1083641 0.79389203 0.28452012 4278821823
-1.1433531 0.80475682 0.2853294 4278821823
-1.1369686 0.80314386 0.28508791 4278821823
-1.1137308 0.8051939 0.28535306 4278821823
-1.1091489 0.80241644 0.28602216 4278821823
-1.1447035 0.81649363 0.28492653 4278821823
-1.1390001 0.81386501 0.28597382 4278821823
-1.1213487 0.81603122 0.28605247 4278821823
-1.116052 0.8143701 0.28473485 4278821823
-1.1099861 0.81222099 0.28126091 4278821823
-1.1515329 0.82524669 0.28482264 4278821823
-1.1441728 0.82300043 0.28754312 4278821823
-1.1215405 0.82599294 0.28505725 4278821823
-1.1174952 0.82407498 0.28486124 4278821823
-1.1533794 0.83520925 0.28513724 4278821823
-1.1227882 0.83590645 0.2841472 4278821823
-1.1177425 0.8344152 0.28530115 4278821823
-1.1632389 0.84733933 0.28179529 4278821823
-1.156109 0.84488678 0.28523523 4278821823
-1.1308782 0.84668732 0.28348055 4278821823
-1.1242936 0.84538752 0.28548127 4278821823
-1.118506 0.84261894 0.28436553 4278821823
-1.1810809 0.85770375 0.28679955 4278821823
-1.1738036 0.85779953 0.28473529 4278821823
-1.1661725 0.85388422 0.28498229 4278821823
-1.1573149 0.85059714 0.28650185 4278821823
-1.1316525 0.85695028 0.28520972 4278821823
-1.1263605 0.85392499 0.28521511 4278821823
-1.1190195 0.8511408 0.28391215 4278821823
-1.1728677 0.86514264 0.28454244 4278821823
-1.1687291 0.86129355 0.28020278 4278821823
-1.1407261 0.86875141 0.28513569 4278821823
-1.1334674 0.86519146 0.28528532 4278821823
-1.1278696 0.86260271 0.28462958 4278821823
-1.1419377 0.8759445 0.286221 4278821823
-1.136951 0.8734082 0.28418598 4278821823
-1.1281257 0.87058252 0.28503743 4278821823
-1.1411073 0.88102806 0.28769469 4278821823
-1.1367931 0.88108206 0.28345755 4278821823
-0.65200388 0.39696458 0.29538223 4278821823
-0.64687264 0.39658204 0.29159099 4278821823
-0.65113324 0.40446344 0.29541472 4278821823
-0.64660245 0.40681523 0.29434711 4278821823
-0.65521973 0.41769835 0.29592779 4278821823
-0.64426261 0.41540945 0.29514021 4278821823
-0.65326554 0.4241153 0.29514045 4278821823
-0.64244622 0.42398492 0.29438224 4278821823
-0.63916558 0.42706671 0.29740736 4278821823
-0.65082675 0.43458217 0.29702803 4278821823
-0.64243883 0.4354279 0.29598489 4278821823
-0.63829994 0.43575031 0.29448748 4278821823
-0.65094382 0.44597742 0.29501718 4278821823
-0.6425522 0.4448891 0.29584888 4278821823
-0.63841021 0.44474036 0.29409689 4278821823
-0.65225178 0.4558529 0.29540896 4278821823
-0.64451373 0.45503712 0.29552263 4278821823
-0.63901299 0.45205584 0.29417613 4278821823
-0.65223855 0.46683559 0.29613256 4278821823
-0.64722252 0.46403584 0.29479501 4278821823
-0.6623708 0.4783501 0.29425734 4278821823
-0.65560788 0.47449884 0.29525632 4278821823
-0.64896178 0.47101849 0.29342955 4278821823
-0.69126827 0.48973238 0.29683793 4278821823
-0.68224925 0.48866183 0.29474995 4278821823
-0.67479068 0.48661894 0.29506403 4278821823
-0.66610861 0.48286089 0.29503727 4278821823
-0.65901291 0.48118293 0.29462838 4278821823
-0.74458861 0.49988616 0.29502404 4278821823
-0.73423272 0.49946311 0.2953634 4278821823
-0.723674 0.49887562 0.29442024 4278821823
-0.71553355 0.49825442 0.29449737 4278821823
-0.70487201 0.49693313 0.29478088 4278821823
-0.69497836 0.49460378 0.29499957 4278821823
-0.68596166 0.49191546 0.29428953 4278821823
-0.67752331 0.49070847 0.29507777 4278821823
-0.8817147 0.50922287 0.29272681 4278821823
-0.87475914 0.50955784 0.29285821 4278821823
-0.86286741 0.50918061 0.29320514 4278821823
-0.85564733 0.5091247 0.29346883 4278821823
-0.84478313 0.50857234 0.29417452 4278821823
-0.8347159 0.50846326 0.29459625 4278821823
-0.8240096 0.50868338 0.2930842 4278821823
-0.81409156 0.50877225 0.29427141 4278821823
-0.80455291 0.50795245 0.29451683 4278821823
-0.795008 0.50752139 0.29457709 4278821823
-0.78586918 0.50702447 0.29437345 4278821823
-0.77463675 0.50678259 0.29540542 4278821823
-0.76482159 0.50624621 0.2949985 4278821823
-0.75480795 0.50516105 0.29509032 4278821823
-0.74487966 0.50381666 0.29507732 4278821823
-0.73528254 0.50251967 0.29531679 4278821823
-0.72544402 0.50167233 0.29536584 4278821823
-0.7165429 0.50125855 0.29512686 4278821823
-0.70651126 0.50116754 0.29536662 4278821823
-1.1212451 0.51922458 0.29046074 4278821823
-1.1126525 0.5177753 0.29504234 4278821823
-1.104382 0.51655799 0.29422724 4278821823
-1.0941691 0.51666808 0.29448348 4278821823
-1.0853064 0.51623821 0.29437312 4278821823
-1.0753591 0.51657456 0.29479837 4278821823
-1.0649713 0.51689684 0.29523984 4278821823
-1.0550048 0.51662779 0.29540294 4278821823
-1.0445747 0.516433 0.29460397 4278821823
-1.0360097 0.516303 0.29502288 4278821823
-1.0245134 0.51699346 0.29477406 4278821823
-1.0153341 0.51699722 0.29405847 4278821823
-1.003927 0.51751006 0.295243 4278821823
-0.99520493 0.51702559 0.29481432 4278821823
-0.98500836 0.51665312 0.29459733 4278821823
-0.97500288 0.5159319 0.29514951 4278821823
-0.96505451 0.51621938 0.29521501 4278821823
-0.95475072 0.51597548 0.2947233 4278821823
-0.94529277 0.51611286 0.29554519 4278821823
-0.93472499 0.51620716 0.29518852 4278821823
-0.92427421 0.51628375 0.29498357 4278821823
-0.91515338 0.51549572 0.29496652 4278821823
-0.90470505 0.51500976 0.29481477 4278821823
-0.89546144 0.51421511 0.29546383 4278821823
-0.88498878 0.51413661 0.29484963 4278821823
-0.87477374 0.51361066 0.29564288 4278821823
-0.86518294 0.51263887 0.2948007 4278821823
-0.85602748 0.51227564 0.2957938 4278821823
-0.84489852 0.51262003 0.29506725 4278821823
-0.83485591 0.51205027 0.29571217 4278821823
-0.82536989 0.51138479 0.29588398 4278821823
-0.81526953 0.51177877 0.29614791 4278821823
-0.80493307 0.51118797 0.29646051 4278821823
-0.79746222 0.51117611 0.29475868 4278821823
-0.7830959 0.51254892 0.29622886 4278821823
-0.77577263 0.51148856 0.29529399 4278821823
-0.76553988 0.51083457 0.29416126 4278821823
-0.75090319 0.51009655 0.29192391 4278821823
-0.7493391 0.51006341 0.29051858 4278821823
-1.1228842 0.52323687 0.29005611 4278821823
-1.1162894 0.52301681 0.29508263 4278821823
-1.1057186 0.52320492 0.29748249 4278821823
-1.0948671 0.52321434 0.29566294 4278821823
-1.0856739 0.52316672 0.29661182 4278821823
-1.0772946 0.52312315 0.29595608 4278821823
-1.0638607 0.52257884 0.29457009 4278821823
-1.0539721 0.52405483 0.29601601 4278821823
-1.0448185 0.52227026 0.29524919 4278821823
-1.0351458 0.52260345 0.29483432 4278821823
-1.0225509 0.52177018 0.29674435 4278821823
-1.0151575 0.52105403 0.29638094 4278821823
-1.0064111 0.5209977 0.29671311 4278821823
-0.98473775 0.52084488 0.2970832 4278821823
-0.9751212 0.52057874 0.29509813 4278821823
-0.96404338 0.52052951 0.29561475 4278821823
-0.95554847 0.52078182 0.29493538 4278821823
-0.94632375 0.52122486 0.29603642 4278821823
-0.93542194 0.52148163 0.29564762 4278821823
-0.92646343 0.52088845 0.2937482 4278821823
-0.91503412 0.52020991 0.29505873 4278821823
-1.0866072 0.55780613 0.29702169 4278821823
-1.0813789 0.56441945 0.29666695 4278821823
-1.0751603 0.56727803 0.29566026 4278821823
-1.0690322 0.56789535 0.29715574 4278821823
-1.080846 0.57356995 0.29652059 4278821823
-1.07515 0.57519948 0.29496258 4278821823
-1.0684022 0.57702851 0.29378316 4278821823
-1.0588133 0.57413244 0.29259652 4278821823
-1.0801212 0.58205044 0.29662704 4278821823
-1.0741031 0.58484954 0.29509938 4278821823
-1.0694715 0.58728486 0.29479027 4278821823
-1.0742056 0.59525472 0.29517698 4278821823
-1.0695959 0.59267455 0.29334965 4278821823
-1.0801483 0.60322481 0.29931423 4278821823
-1.0751377 0.60514593 0.29486644 4278821823
-1.0814223 0.61621326 0.29439002 4278821823
-1.0756125 0.61517537 0.29488331 4278821823
-1.0695899 0.61742043 0.29603136 4278821823
-1.0816494 0.62590522 0.29303056 4278821823
-1.0759475 0.62544787 0.29440165 4278821823
-1.0681062 0.62562537 0.2976011 4278821823
-1.1026489 0.63741523 0.29491755 4278821823
-1.0820271 0.63459188 0.2948986 4278821823
-1.0765405 0.63560724 0.29529673 4278821823
-1.0688885 0.63187343 0.29538488 4278821823
-1.1029809 0.64560854 0.29465544 4278821823
-1.0813191 0.64606726 0.29530501 4278821823
-1.0772965 0.64461535 0.2953755 4278821823
-1.110433 0.65619093 0.29481894 4278821823
-1.1033131 0.65380192 0.29439333 4278821823
-1.0817448 0.65533906 0.29536635 4278821823
-1.0782281 0.65428865 0.29426906 4278821823
-1.1107923 0.66475236 0.2949678 4278821823
-1.0901245 0.66809893 0.29572505 4278821823
-1.0833179 0.66507792 0.29454052 4278821823
-1.0788738 0.66286641 0.29484025 4278821823
-1.1137102 0.67576325 0.29526508 4278821823
-1.0908437 0.67788064 0.298383 4278821823
-1.0841483 0.67480826 0.29437089 4278821823
-1.0796127 0.6713177 0.29108432 4278821823
-1.0912799 0.68604428 0.29585674 4278821823
-1.0859853 0.68487209 0.29472867 4278821823
-1.078054 0.68784392 0.29817709 4278821823
-1.1166638 0.69406587 0.29441282 4278821823
-1.091512 0.69575322 0.29532418 4278821823
-1.0871496 0.69478327 0.29467723 4278821823
-1.0794072 0.69076586 0.2983712 4278821823
-1.112476 0.7056244 0.29461142 4278821823
-1.0920918 0.70538199 0.29492122 4278821823
-1.0877594 0.70505303 0.29456133 4278821823
-1.1200818 0.7180301 0.2974965 4278821823
-1.1138785 0.71561033 0.29416922 4278821823
-1.092795 0.71589547 0.29464689 4278821823
-1.0877941 0.71410435 0.29638416 4278821823
-1.1211307 0.7253834 0.29551041 4278821823
-1.0930848 0.72520536 0.29554132 4278821823
-1.0891392 0.72407115 0.29522288 4278821823
-1.1246982 0.73461944 0.29482737 4278821823
-1.1006656 0.7368995 0.29666016 4278821823
-1.0954255 0.73508972 0.29520449 4278821823
-1.0898017 0.73410469 0.29306155 4278821823
-1.1341943 0.74617398 0.2950367 4278821823
-1.1269953 0.74187058 0.29462826 4278821823
-1.1013273 0.74682713 0.29374638 4278821823
-1.0979289 0.74435627 0.2955882 4278821823
-1.1345466 0.75506353 0.29447383 4278821823
-1.1019351 0.75583762 0.29447696 4278821823
-1.0983444 0.75410789 0.29642358 4278821823
-1.1349893 0.76502979 0.29550445 4278821823
-1.1033682 0.76529944 0.29521465 4278821823
-1.0990614 0.76254553 0.29283041 4278821823
-1.1354192 0.77541357 0.2954936 4278821823
-1.1113673 0.77634603 0.29828426 4278821823
-1.1061723 0.77480167 0.29469112 4278821823
-1.0988783 0.77262276 0.29709569 4278821823
-1.1358137 0.78514576 0.29518217 4278821823
-1.1120464 0.78563535 0.29496485 4278821823
-1.1072792 0.78415531 0.29501358 4278821823
-1.1434122 0.79879403 0.29601032 4278821823
-1.1352297 0.79640865 0.29510269 4278821823
-1.1121594 0.79540962 0.29478168 4278821823
-1.1083044 0.79439247 0.29506794 4278821823
-1.141824 0.80727601 0.29647765 4278821823
-1.1346955 0.80551702 0.29485276 4278821823
-1.1206374 0.80834335 0.29872096 4278821823
-1.1132705 0.80480129 0.29492164 4278821823
-1.1092278 0.80447137 0.2958869 4278821823
-1.1516826 0.81747115 0.29580766 4278821823
-1.1448708 0.81548876 0.29498863 4278821823
-1.138913 0.81300002 0.29440543 4278821823
-1.1210467 0.81568867 0.29395929 4278821823
-1.1150683 0.81488031 0.29493508 4278821823
-1.1091263 0.81189466 0.29441136 4278821823
-1.151361 0.82614571 0.29437131 4278821823
-1.1449516 0.8223536 0.29331201 4278821823
-1.1223077 0.82598662 0.29371086 4278821823
-1.1168852 0.82493734 0.29533467 4278821823
-1.1530523 0.83511043 0.29521918 4278821823
-1.1216866 0.83515376 0.29528287 4278821823
-1.1178248 0.83364749 0.29588464 4278821823
-1.163704 0.84673089 0.29517391 4278821823
-1.1566906 0.84418535 0.29495734 4278821823
-1.1304075 0.84887713 0.29515961 4278821823
-1.1242353 0.84492761 0.29559362 4278821823
-1.118448 0.84269077 0.2941905 4278821823
-1.174065 0.85704517 0.29378277 4278821823
-1.1665972 0.85338974 0.29543141 4278821823
-1.1575043 0.8508209 0.29275858 4278821823
-1.1312399 0.85635799 0.29572302 4278821823
-1.1264849 0.85429025 0.29547185 4278821823
-1.1193411 0.85020983 0.29995289 4278821823
-1.1802868 0.86794573 0.29480228 4278821823
-1.1741982 0.86208189 0.29512739 4278821823
-1.1408817 0.86819535 0.29527044 4278821823
-1.1329486 0.86544085 0.29458094 4278821823
-1.1278508 0.86330807 0.29549855 4278821823
-1.1519847 0.87808961 0.29503641 4278821823
-1.1434542 0.8753863 0.29628757 4278821823
-1.1369164 0.87322867 0.29451343 4278821823
-1.1297415 0.87112606 0.29008326 4278821823
-1.1436958 0.88099569 0.29023695 4278821823
-1.1364596 0.88103896 0.29833257 4278821823
-0.65205008 0.39818516 0.30205974 4278821823
-0.65111625 0.40535235 0.30498675 4278821823
-0.6463086 0.40725741 0.30485088 4278821823
-0.6511476 0.41311103 0.3057214 4278821823
-0.64446867 0.41543019 0.30482841 4278821823
-0.6399222 0.41024613 0.30136707 4278821823
-0.65278 0.42655563 0.3048785 4278821823
-0.64205593 0.42435113 0.30586669 4278821823
-0.63867635 0.42649317 0.30466577 4278821823
-0.65187806 0.4356851 0.30472022 4278821823
-0.6416195 0.43570715 0.30509758 4278821823
-0.63858062 0.43477198 0.30513218 4278821823
-0.65127921 0.44401357 0.30547819 4278821823
-0.64278132 0.44630641 0.30508879 4278821823
-0.63891906 0.4444963 0.30522484 4278821823
-0.65224093 0.45567256 0.30524281 4278821823
-0.64498538 0.45502853 0.30484575 4278821823
-0.63927835 0.45182434 0.3032538 4278821823
-0.66151112 0.46683508 0.30678916 4278821823
-0.65215433 0.46703577 0.30402464 4278821823
-0.64775324 0.4640888 0.30548212 4278821823
-0.6621331 0.47800937 0.30501738 4278821823
-0.6563338 0.47398642 0.30429906 4278821823
-0.6488924 0.47189987 0.30792052 4278821823
-0.69359106 0.4898451 0.30434269 4278821823
-0.68254191 0.48895288 0.30414978 4278821823
-0.6748867 0.48687151 0.30496889 4278821823
-0.66588247 0.48307589 0.30507141 4278821823
-0.65945947 0.48103702 0.30515435 4278821823
-0.74125385 0.49965513 0.30226287 4278821823
-0.73201931 0.49983895 0.3012892 4278821823
-0.72219485 0.49908575 0.30513552 4278821823
-0.71471852 0.49846733 0.30441856 4278821823
-0.70477253 0.49721813 0.3049697 4278821823
-0.69517982 0.49443167 0.30490941 4278821823
-0.68550336 0.49193087 0.30540714 4278821823
-0.67830729 0.49099317 0.30712608 4278821823
-0.86249441 0.50955808 0.30059081 4278821823
-0.85541576 0.50949258 0.30168283 4278821823
-0.84394002 0.50917363 0.30292019 4278821823
-0.83645654 0.50920081 0.30355132 4278821823
-0.82361412 0.50876606 0.30457714 4278821823
-0.8125819 0.50936067 0.3049674 4278821823
-0.80543834 0.50878942 0.30402184 4278821823
-0.79472202 0.5080719 0.30420804 4278821823
-0.78505325 0.50712651 0.3048079 4278821823
-0.77483243 0.50754404 0.30468065 4278821823
-0.76479161 0.5067246 0.30502713 4278821823
-0.75497919 0.50572848 0.30468673 4278821823
-0.7450105 0.5044657 0.30521041 4278821823
-0.73506469 0.50283188 0.30496702 4278821823
-0.72525293 0.50205082 0.30491912 4278821823
-0.71737814 0.50089997 0.30526927 4278821823
-0.70652246 0.50091118 0.30768999 4278821823
-1.1224302 0.51735175 0.30298617 4278821823
-1.1124735 0.51804668 0.30569404 4278821823
-1.1053342 0.51711583 0.30449867 4278821823
-1.0945429 0.51746136 0.3058911 4278821823
-1.0856446 0.51737553 0.30397391 4278821823
-1.0752198 0.51791292 0.30484867 4278821823
-1.0646393 0.51790673 0.30535895 4278821823
-1.056111 0.51731545 0.30410287 4278821823
-1.0445139 0.51677608 0.30481541 4278821823
-1.0355119 0.51717806 0.30478194 4278821823
-1.0250624 0.51760513 0.30603817 4278821823
-1.0150678 0.5177415 0.30585292 4278821823
-1.0051447 0.51777703 0.3048512 4278821823
-0.9945401 0.51739424 0.30464673 4278821823
-0.98490959 0.51703882 0.30522162 4278821823
-0.97514158 0.51644576 0.30516759 4278821823
-0.96441966 0.51703548 0.30442449 4278821823
-0.95483375 0.51722854 0.30394083 4278821823
-0.94539559 0.517344 0.30421767 4278821823
-0.93481326 0.5174247 0.30500731 4278821823
-0.9245531 0.51735449 0.30443448 4278821823
-0.91441929 0.51686621 0.30519646 4278821823
-0.90473157 0.51628423 0.30494145 4278821823
-0.89521003 0.51562673 0.30488572 4278821823
-0.88513601 0.51521564 0.30477178 4278821823
-0.87517184 0.51482743 0.30489945 4278821823
-0.86499298 0.513978 0.30488163 4278821823
-0.85486579 0.51360589 0.30555561 4278821823
-0.84514993 0.5129475 0.30528677 4278821823
-0.83550739 0.51219058 0.30539194 4278821823
-0.8245492 0.51231253 0.30546671 4278821823
-0.81494302 0.5122208 0.30572569 4278821823
-0.8048948 0.51132745 0.30542108 4278821823
-0.79561251 0.5111661 0.3063668 4278821823
-0.78521883 0.51171541 0.30739582 4278821823
-0.77466279 0.51069427 0.30804393 4278821823
-0.76756346 0.51065016 0.30757707 4278821823
-1.1247356 0.52191961 0.3032127 4278821823
-1.1121043 0.52228403 0.30483252 4278821823
-1.1049868 0.52157623 0.30562714 4278821823
-1.0950519 0.5222522 0.30440295 4278821823
-1.0861291 0.52249807 0.30553773 4278821823
-1.0737591 0.52444738 0.3063803 4278821823
-1.0669003 0.52180374 0.30764517 4278821823
-1.0556285 0.52158213 0.30487636 4278821823
-1.0447702 0.52119273 0.30611712 4278821823
-1.0359408 0.52253932 0.30656305 4278821823
-1.0242293 0.52164614 0.30470902 4278821823
-1.0146183 0.5214681 0.30305135 4278821823
-1.004413 0.52151555 0.30618283 4278821823
-0.99503016 0.52181178 0.30467141 4278821823
-0.98625708 0.52179331 0.306517 4278821823
-0.97470653 0.52130532 0.30500144 4278821823
-0.96453893 0.52096152 0.30632991 4278821823
-0.95535004 0.52123779 0.3069576 4278821823
-0.94446945 0.52110982 0.30662611 4278821823
-0.93588084 0.5211919 0.3057676 4278821823
-0.92480814 0.52015704 0.30916309 4278821823
-0.9145844 0.52029073 0.30648765 4278821823
-0.90612644 0.52041608 0.30684218 4278821823
-0.8991968 0.52035683 0.30963716 4278821823
-0.88332134 0.52104896 0.30716947 4278821823
-0.87816572 0.52123082 0.30838788 4278821823
-1.0862138 0.55728626 0.30330747 4278821823
-1.082509 0.56424874 0.30517709 4278821823
-1.0763327 0.56685185 0.30499336 4278821823
-1.0690181 0.56640476 0.30560908 4278821823
-1.0807898 0.5714823 0.30634126 4278821823
-1.0751816 0.57516998 0.30499905 4278821823
-1.0696886 0.57414687 0.30531007 4278821823
-1.0745184 0.58513975 0.30507928 4278821823
-1.0694062 0.5883379 0.30516541 4278821823
-1.0754249 0.59474659 0.30486843 4278821823
-1.0696241 0.59160751 0.30798841 4278821823
-1.0805961 0.6054185 0.30724016 4278821823
-1.0748006 0.60502863 0.30504355 4278821823
-1.0697507 0.60698742 0.3053211 4278821823
-1.0803739 0.61592281 0.30232006 4278821823
-1.0748658 0.61503589 0.30481496 4278821823
-1.0692815 0.61627179 0.30619153 4278821823
-1.0809854 0.62317449 0.30129391 4278821823
-1.0744011 0.62528312 0.30525491 4278821823
-1.06902 0.62173212 0.30198649 4278821823
-1.1029761 0.63775158 0.30584651 4278821823
-1.0809517 0.63633591 0.30530822 4278821823
-1.0761963 0.63475275 0.30487952 4278821823
-1.1104428 0.64962673 0.30464619 4278821823
-1.1032727 0.64534765 0.30521277 4278821823
-1.0812238 0.64642251 0.30438063 4278821823
-1.0772179 0.64503539 0.30445516 4278821823
-1.1106652 0.65511459 0.30447066 4278821823
-1.1035705 0.6514492 0.30677578 4278821823
-1.0820121 0.65521717 0.30534777 4278821823
-1.0787547 0.65418285 0.30424881 4278821823
-1.1110516 0.66445249 0.3044467 4278821823
-1.0906227 0.66665184 0.30528855 4278821823
-1.0838187 0.66484606 0.30508485 4278821823
-1.0785877 0.66320032 0.30377981 4278821823
-1.1115404 0.67573649 0.30518481 4278821823
-1.0906503 0.67493135 0.30484644 4278821823
-1.0861526 0.67503399 0.30471849 4278821823
-1.1144767 0.68607301 0.30535218 4278821823
-1.0911494 0.68675458 0.30465269 4278821823
-1.0868851 0.68467778 0.30479947 4278821823
-1.0792067 0.68780279 0.30022141 4278821823
-1.1171772 0.69474417 0.30507299 4278821823
-1.0916313 0.69513339 0.30473796 4278821823
-1.0876356 0.69487303 0.30537573 4278821823
-1.1133494 0.7050367 0.3055546 4278821823
-1.0921077 0.70573223 0.30534741 4278821823
-1.0877963 0.7051031 0.30522373 4278821823
-1.1202461 0.71687812 0.30489507 4278821823
-1.1131374 0.7140919 0.30543733 4278821823
-1.093299 0.71541297 0.30504927 4278821823
-1.0890857 0.71361989 0.30525014 4278821823
-1.1230516 0.72507578 0.30462071 4278821823
-1.1002992 0.72947305 0.30185452 4278821823
-1.0947492 0.72491819 0.30511841 4278821823
-1.0890813 0.72231686 0.30239207 4278821823
-1.1339664 0.73661304 0.30091161 4278821823
-1.1270328 0.73527783 0.30546382 4278821823
-1.1008115 0.73560488 0.30507538 4278821823
-1.09665 0.73489046 0.30519921 4278821823
-1.1344417 0.74566698 0.30440092 4278821823
-1.1273739 0.74199432 0.3076511 4278821823
-1.1012379 0.74570155 0.30584338 4278821823
-1.0975049 0.74466914 0.30457577 4278821823
-1.1348239 0.75481558 0.30450603 4278821823
-1.1023542 0.75610077 0.30521631 4278821823
-1.0985408 0.75344372 0.30461934 4278821823
-1.1352202 0.76416886 0.30480352 4278821823
-1.111606 0.76861984 0.30140707 4278821823
-1.1041961 0.76526409 0.30493242 4278821823
-1.099191 0.76338243 0.30342135 4278821823
-1.1357108 0.77571321 0.30522978 4278821823
-1.1115685 0.77472395 0.30315533 4278821823
-1.1051741 0.7749756 0.30558065 4278821823
-1.1432447 0.78724426 0.30686998 4278821823
-1.1360612 0.7846387 0.30454642 4278821823
-1.1112502 0.78697628 0.30391434 4278821823
-1.107118 0.78447753 0.30548334 4278821823
-1.0992708 0.78254813 0.30948052 4278821823
-1.1435767 0.79599917 0.30579063 4278821823
-1.1354816 0.79640114 0.3038021 4278821823
-1.112532 0.79638803 0.30513239 4278821823
-1.1074836 0.79461604 0.30537242 4278821823
-1.1420939 0.80763954 0.30529183 4278821823
-1.1343755 0.80561197 0.30538821 4278821823
-1.1215416 0.80726385 0.30087924 4278821823
-1.1133426 0.80596709 0.30548993 4278821823
-1.1085668 0.8035689 0.30459261 4278821823
-1.1519966 0.81711417 0.30489644 4278821823
-1.1437135 0.81513619 0.30532974 4278821823
-1.1370465 0.81307143 0.30285421 4278821823
-1.1205467 0.81851172 0.30583856 4278821823
-1.1151448 0.81523412 0.30511656 4278821823
-1.1096165 0.81229687 0.30150369 4278821823
-1.1527386 0.82678103 0.30574584 4278821823
-1.1447325 0.82467097 0.3046554 4278821823
-1.1211324 0.82646227 0.30617249 4278821823
-1.1163968 0.8243804 0.30431256 4278821823
-1.1544595 0.83486277 0.3054378 4278821823
-1.1227491 0.83529443 0.30384293 4278821823
-1.1180134 0.83292598 0.30470473 4278821823
-1.170084 0.84804577 0.30770999 4278821823
-1.1640437 0.84590578 0.30456015 4278821823
-1.1578858 0.84342003 0.30510157 4278821823
-1.130944 0.84675157 0.3035304 4278821823
-1.1249201 0.84607631 0.3048408 4278821823
-1.1171056 0.84444374 0.30614954 4278821823
-1.1744056 0.85726058 0.30424196 4278821823
-1.1663072 0.85475838 0.30521101 4278821823
-1.1589416 0.85297382 0.30534235 4278821823
-1.1313928 0.85489875 0.30503815 4278821823
-1.1255528 0.85481167 0.30482769 4278821823
-1.1190767 0.85312241 0.30690181 4278821823
-1.1804705 0.86539769 0.30489317 4278821823
-1.1732935 0.86172056 0.30434349 4278821823
-1.1408795 0.86810189 0.30877674 4278821823
-1.1332408 0.86537236 0.30445597 4278821823
-1.1276457 0.86312068 0.30422035 4278821823
-1.119765 0.86143082 0.30887771 4278821823
-1.1524016 0.87898338 0.30478927 4278821823
-1.1428574 0.87559754 0.30538687 4278821823
-1.1363403 0.87330633 0.30449879 4278821823
-1.1283319 0.87341422 0.30686074 4278821823
-1.1488321 0.88090503 0.3077608 4278821823
-1.1344379 0.88133103 0.30567265 4278821823
-0.65129107 0.4050245 0.31362891 4278821823
-0.64748752 0.40606186 0.31450027 4278821823
-0.65033984 0.41256446 0.31208724 4278821823
-0.6449756 0.41521749 0.31503415 4278821823
-0.65165067 0.42816386 0.31347388 4278821823
-0.64187121 0.42471576 0.3146863 4278821823
-0.63904411 0.42744121 0.31480742 4278821823
-0.65133435 0.43448082 0.31385151 4278821823
-0.64228183 0.43463856 0.31570515 4278821823
-0.63893801 0.43536043 0.31552589 4278821823
-0.65121806 0.44568092 0.31538671 4278821823
-0.64270532 0.44576764 0.31533974 4278821823
-0.63906944 0.44410163 0.31518936 4278821823
-0.65320283 0.45492393 0.31418222 4278821823
-0.64510041 0.45493767 0.31431565 4278821823
-0.63941765 0.45169562 0.3148427 4278821823
-0.6607033 0.46836817 0.31360501 4278821823
-0.65206659 0.46713081 0.31493956 4278821823
-0.64782935 0.46408606 0.3148984 4278821823
-0.66167253 0.47829509 0.31458879 4278821823
-0.65578121 0.47462425 0.3151961 4278821823
-0.64887077 0.47141311 0.316989 4278821823
-0.69193494 0.48946056 0.31342641 4278821823
-0.68245524 0.48890635 0.31558144 4278821823
-0.67491615 0.4866268 0.31508166 4278821823
-0.66559327 0.48308659 0.31504741 4278821823
-0.65896553 0.48112932 0.31557378 4278821823
-0.73533106 0.49987978 0.31366938 4278821823
-0.72362387 0.49909273 0.31548128 4278821823
-0.71352988 0.498586 0.31503481 4278821823
-0.70480633 0.49724391 0.31492704 4278821823
-0.69511855 0.49480149 0.31516567 4278821823
-0.68573809 0.4922075 0.31522611 4278821823
-0.67901528 0.49094772 0.314051 4278821823
-0.84258658 0.50967056 0.31149167 4278821823
-0.82215631 0.50963849 0.31453046 4278821823
-0.81671619 0.50978708 0.31332746 4278821823
-0.80465281 0.50895011 0.31317708 4278821823
-0.79410565 0.50877649 0.31419188 4278821823
-0.78498662 0.50876045 0.31499153 4278821823
-0.7753371 0.50795978 0.31433424 4278821823
-0.7647568 0.50713682 0.31426787 4278821823
-0.75473303 0.506055 0.31460696 4278821823
-0.74474889 0.50471133 0.31506282 4278821823
-0.73522264 0.50361162 0.31501666 4278821823
-0.72510815 0.50251871 0.31455645 4278821823
-0.71634692 0.50132549 0.31508419 4278821823
-0.70783573 0.50080341 0.31686872 4278821823
-1.1216888 0.51642418 0.31638458 4278821823
-1.1123332 0.51749945 0.31367394 4278821823
-1.1042607 0.51755244 0.31393141 4278821823
-1.0951874 0.51751119 0.31511194 4278821823
-1.085292 0.5176959 0.31410173 4278821823
-1.0745705 0.51806152 0.31439495 4278821823
-1.0663513 0.51815075 0.31371433 4278821823
-1.0563914 0.51776773 0.31425625 4278821823
-1.0440986 0.51809967 0.31447211 4278821823
-1.0349742 0.51785702 0.3142103 4278821823
-1.0248115 0.51802582 0.31468561 4278821823
-1.014894 0.51821798 0.31453779 4278821823
-1.0049781 0.51772898 0.31472459 4278821823
-0.99475813 0.51820487 0.31402424 4278821823
-0.98449647 0.51809692 0.31460068 4278821823
-0.97507507 0.5178709 0.314926 4278821823
-0.96511346 0.51753139 0.31542185 4278821823
-0.9548443 0.51783091 0.31508872 4278821823
-0.94402492 0.51799738 0.31529233 4278821823
-0.93478358 0.51810575 0.31494221 4278821823
-0.92577916 0.51788861 0.31460962 4278821823
-0.91517496 0.5176478 0.3153176 4278821823
-0.90452641 0.51745963 0.31532714 4278821823
-0.8952316 0.51654178 0.3149192 4278821823
-0.88446373 0.51717085 0.31550002 4278821823
-0.87501216 0.51650769 0.31496018 4278821823
-0.86489171 0.51505923 0.31444457 4278821823
-0.85485548 0.51481229 0.31511807 4278821823
-0.84512001 0.51383793 0.31479383 4278821823
-0.83496588 0.5130828 0.31535721 4278821823
-0.82501376 0.51272219 0.31539091 4278821823
-0.81485707 0.51237786 0.31514898 4278821823
-0.80498946 0.51213908 0.31538892 4278821823
-0.7957558 0.5113672 0.31539273 4278821823
-0.78663069 0.51127213 0.3153697 4278821823
-0.77445149 0.51078635 0.31609064 4278821823
-0.76574123 0.5106951 0.31688219 4278821823
-0.75476944 0.51053888 0.31786573 4278821823
-0.74732721 0.51030332 0.31627053 4278821823
-1.121612 0.52005398 0.31785378 4278821823
-1.111955 0.52199966 0.31425419 4278821823
-1.1068406 0.52171582 0.3154819 4278821823
-1.0964109 0.52158636 0.31499261 4278821823
-1.0836267 0.52172863 0.31682345 4278821823
-1.0742301 0.52168286 0.31550184 4278821823
-1.0667882 0.52163571 0.31755868 4278821823
-1.053604 0.52171367 0.31570292 4278821823
-1.0449517 0.5214901 0.31589144 4278821823
-1.035615 0.5215736 0.31559548 4278821823
-1.0257933 0.52223957 0.31529242 4278821823
-1.013522 0.52271235 0.31618622 4278821823
-1.0048138 0.52245104 0.31481415 4278821823
-0.99427593 0.52260846 0.31605738 4278821823
-0.98519582 0.52172172 0.31542453 4278821823
-0.97446632 0.52131581 0.31673217 4278821823
-0.96403378 0.52106482 0.31386831 4278821823
-0.95449251 0.52156848 0.3161304 4278821823
-0.94525915 0.52202702 0.3150984 4278821823
-0.9341169 0.52141839 0.31694716 4278821823
-0.92247075 0.52061856 0.31447947 4278821823
-0.91532332 0.52068835 0.31423378 4278821823
-0.90660417 0.52029967 0.31483263 4278821823
-0.89539462 0.52084428 0.31624249 4278821823
-0.88387394 0.52215123 0.3146283 4278821823
-0.87516457 0.52067059 0.31774032 4278821823
-0.8615284 0.52133495 0.31681445 4278821823
-0.8577193 0.520724 0.31576392 4278821823
-1.1103609 0.53000188 0.31489155 4278821823
-1.0824977 0.55686843 0.31379631 4278821823
-1.0794826 0.55837148 0.31791243 4278821823
-1.0815681 0.56544769 0.31271234 4278821823
-1.0769551 0.56693077 0.31462339 4278821823
-1.0809667 0.57482886 0.31535244 4278821823
-1.0763313 0.57542837 0.31481919 4278821823
-1.0808599 0.58374429 0.31547332 4278821823
-1.075585 0.58496898 0.31464753 4278821823
-1.069785 0.58692926 0.31791046 4278821823
-1.0813962 0.59791481 0.31298494 4278821823
-1.0752722 0.59470308 0.3143917 4278821823
-1.0812538 0.60425586 0.31481522 4278821823
-1.0750577 0.60521555 0.31485218 4278821823
-1.080884 0.6131165 0.31566828 4278821823
-1.0753292 0.61498576 0.31512854 4278821823
-1.080871 0.62612277 0.31734475 4278821823
-1.0763406 0.62454355 0.31479421 4278821823
-1.1102226 0.63690972 0.31535721 4278821823
-1.1032624 0.63804591 0.31540936 4278821823
-1.0813129 0.63579214 0.31621608 4278821823
-1.0775005 0.63445967 0.31494036 4278821823
-1.1106128 0.64585721 0.31603271 4278821823
-1.1034573 0.64478964 0.31245866 4278821823
-1.0819594 0.64581311 0.31553251 4278821823
-1.0783242 0.64381528 0.31401411 4278821823
-1.110974 0.65468067 0.3158682 4278821823
-1.1036787 0.65025187 0.31228393 4278821823
-1.0828345 0.6549024 0.31494734 4278821823
-1.0785193 0.65641057 0.3159371 4278821823
-1.1113831 0.66505641 0.31514373 4278821823
-1.0840276 0.66550696 0.31494203 4278821823
-1.0788403 0.66391647 0.31578174 4278821823
-1.1137774 0.67459649 0.31501505 4278821823
-1.0915424 0.67836916 0.31473309 4278821823
-1.0849413 0.67516434 0.31478962 4278821823
-1.0797271 0.67230552 0.31725073 4278821823
-1.1148045 0.68470353 0.31440097 4278821823
-1.0916567 0.68617684 0.31469846 4278821823
-1.0866157 0.68491757 0.31560788 4278821823
-1.1196022 0.69428813 0.31509596 4278821823
-1.0915922 0.6951108 0.31542659 4278821823
-1.0879672 0.6943714 0.31581497 4278821823
-1.1202031 0.70670646 0.31810346 4278821823
-1.1139948 0.70444953 0.31436521 4278821823
-1.0926435 0.70570457 0.31507155 4278821823
-1.0883818 0.70406824 0.3146126 4278821823
-1.1205133 0.71517116 0.31668243 4278821823
-1.1133342 0.71351892 0.31313539 4278821823
-1.1003613 0.71440119 0.31604144 4278821823
-1.0940871 0.71502912 0.31503585 4278821823
-1.0891764 0.71229291 0.31196433 4278821823
-1.1208979 0.72547382 0.31520253 4278821823
-1.1006861 0.72639304 0.3158358 4278821823
-1.0959874 0.72483587 0.31505284 4278821823
-1.1256646 0.73452312 0.31471494 4278821823
-1.1013191 0.73580325 0.3148455 4278821823
-1.0974525 0.73485363 0.31469604 4278821823
-1.1348053 0.74706852 0.31505662 4278821823
-1.1276171 0.74250978 0.31539524 4278821823
-1.1017884 0.74558312 0.31519893 4278821823
-1.0978206 0.74464995 0.3148745 4278821823
-1.1351571 0.75515801 0.31563321 4278821823
-1.1026485 0.75590312 0.31461772 4278821823
-1.0986611 0.75357163 0.31613383 4278821823
-1.1355516 0.76489031 0.31532183 4278821823
-1.1034721 0.76517284 0.31475684 4278821823
-1.0991454 0.76480967 0.3160812 4278821823
-1.1359462 0.77462262 0.31501046 4278821823
-1.1110746 0.77698964 0.31449589 4278821823
-1.1048353 0.77469724 0.31518239 4278821823
-1.0995679 0.77400696 0.31394243 4278821823
-1.1434834 0.78691596 0.31567222 4278821823
-1.1362625 0.7827 0.31437236 4278821823
-1.1114038 0.78594404 0.31397748 4278821823
-1.1065854 0.78379065 0.31496629 4278821823
-1.1437931 0.79503614 0.31473309 4278821823
-1.13489 0.79959536 0.31485105 4278821823
-1.1127195 0.79541314 0.31560075 4278821823
-1.1076508 0.79424202 0.31411523 4278821823
-1.142499 0.80533457 0.31665981 4278821823
-1.1347067 0.80505407 0.31479824 4278821823
-1.1139396 0.80508685 0.31535068 4278821823
-1.1085529 0.8022697 0.31306806 4278821823
-1.1515526 0.81737435 0.31599584 4278821823
-1.1443156 0.81375927 0.31496429 4278821823
-1.1344389 0.81124526 0.31292549 4278821823
-1.1213812 0.81705332 0.31521043 4278821823
-1.1158983 0.81442738 0.3149108 4278821823
-1.1092731 0.81274527 0.31112859 4278821823
-1.152369 0.82527816 0.31505781 4278821823
-1.1224569 0.82606518 0.3158375 4278821823
-1.1169255 0.82389134 0.31368285 4278821823
-1.1562614 0.8348757 0.31523705 4278821823
-1.1231903 0.8356601 0.31510463 4278821823
-1.1174663 0.83456111 0.3148883 4278821823
-1.1701804 0.84868455 0.3112497 4278821823
-1.1643711 0.84618843 0.31468827 4278821823
-1.1582001 0.84385931 0.3153314 4278821823
-1.1240664 0.84472317 0.31482425 4278821823
-1.1186031 0.84350252 0.31530026 4278821823
-1.1818901 0.85845363 0.315557 4278821823
-1.1726015 0.85660982 0.31484374 4278821823
-1.1659763 0.85512245 0.31567085 4278821823
-1.1591989 0.85316098 0.31404194 4278821823
-1.1322162 0.85690016 0.31560475 4278821823
-1.1257324 0.85401493 0.31472468 4278821823
-1.1189327 0.85286331 0.31739569 4278821823
-1.1734638 0.86189568 0.3100318 4278821823
-1.1403008 0.86629373 0.31127346 4278821823
-1.1338211 0.86535037 0.31589657 4278821823
-1.1257068 0.86385483 0.31413123 4278821823
-1.1190975 0.8615216 0.31576037 4278821823
-1.160014 0.87977129 0.31572446 4278821823
-1.1548009 0.87909025 0.31485772 4278821823
