# .PCD v0.7 - Point Cloud Data file format
VERSION 0.7
FIELDS x y z rgba
SIZE 4 4 4 4
TYPE F F F U
COUNT 1 1 1 1
WIDTH 1085
HEIGHT 1
VIEWPOINT 0 0 0 1 0 0 0
POINTS 1085
DATA ascii
-1.1520433 0.73230362 0.56745124 4280821325
-1.1432079 0.73465633 0.56471783 4280821582
-1.1454717 0.74434638 0.56478292 4280952398
-1.1573824 0.75504279 0.56815773 4280232271
-1.1475506 0.75353414 0.56345028 4280494159
-1.154929 0.76501107 0.56499797 4281018962
-1.1494827 0.76203752 0.56238288 4280887633
-1.1524726 0.77455658 0.56381232 4281084498
-1.1552199 0.78573805 0.5666827 4280757075
-1.1575885 0.79604965 0.56591755 4280691281
-1.1604313 0.80816913 0.56623518 4281149778
-1.1593423 0.8037712 0.56493038 4280953169
-1.1620638 0.81540203 0.56510299 4281346643
-1.1643014 0.82507825 0.56469566 4281412436
-1.1763489 0.83733761 0.5633629 4281346388
-1.1664848 0.83432132 0.5652526 4281346644
-1.1785977 0.84706211 0.56295359 4281280852
-1.1692412 0.84609175 0.56546664 4281215059
-1.1911442 0.85674536 0.56310999 4281544022
-1.1804928 0.85451335 0.56618923 4281478486
-1.1797787 0.85223866 0.5624029 4281477974
-1.2040981 0.86790776 0.56454968 4281610325
-1.1928428 0.86372298 0.56457275 4281675608
-1.2056136 0.87446231 0.56427389 4281742167
-1.2071295 0.88101673 0.56399792 4281939293
-1.1980941 0.88616788 0.5648827 4281873759
-1.4310641 0.41587973 0.57235259 4280756295
-1.417569 0.41446957 0.57643682 4280754758
-1.4328469 0.42358923 0.57202804 4281547860
-1.4204471 0.42664102 0.57723552 4280955723
-1.419118 0.42089379 0.5774774 4280756551
-0.67852688 0.42886922 0.57253188 4279243824
-1.4223548 0.43538436 0.57450759 4283590004
-0.67607868 0.4363583 0.57505786 4279177005
-1.4245247 0.44460297 0.57490623 4283656050
-1.4109575 0.44715631 0.57963371 4283393650
-1.4096371 0.4414466 0.57987404 4283458932
-0.67617768 0.44458771 0.5756675 4279504685
-1.4127762 0.45563501 0.57634628 4283853427
-0.67560512 0.45483807 0.57511342 4279833651
-0.68093157 0.46520731 0.57449996 4280097595
-0.67649525 0.4610692 0.57358438 4280031288
-0.70231497 0.47739875 0.57522988 4280492612
-0.69491583 0.47602424 0.57462472 4280230211
-0.68531823 0.47314194 0.57441461 4280098623
-0.71105742 0.48844501 0.57517922 4280755018
-0.70409238 0.48508501 0.57490641 4281017416
-0.7552681 0.4979099 0.57217979 4280754763
-0.73325479 0.49724436 0.57509267 4280885321
-0.7259407 0.4948273 0.57580841 4280820041
-0.71426135 0.49393815 0.57507658 4280689226
-0.82253063 0.5082683 0.57388103 4280492875
-0.81527817 0.50770479 0.57542932 4280492361
-0.80434817 0.50770628 0.57473612 4280754505
-0.79514599 0.50895447 0.57824248 4280754761
-0.78544086 0.50770235 0.57491606 4281082699
-0.77413583 0.50757998 0.57556462 4280688968
-0.76630104 0.50483412 0.57560009 4280623690
-0.75771463 0.50123203 0.57485431 4280754763
-0.74406201 0.50173825 0.5770703 4280819785
-0.73675603 0.50201869 0.57344586 4280885578
-1.1437737 0.51932782 0.57356304 4281213771
-1.1333845 0.51825887 0.57645595 4281148233
-1.1230056 0.51724255 0.57930994 4280951624
-1.1127369 0.51776153 0.57704389 4280820808
-1.1025696 0.5183655 0.57645631 4280624200
-1.0930698 0.51705289 0.57766116 4280558923
-1.0827382 0.51763892 0.57377255 4280558667
-1.0733494 0.51646513 0.57660037 4280493645
-1.0641571 0.51683092 0.57607085 4280428365
-1.0540333 0.51762599 0.5754661 4280296779
-1.0444931 0.51648718 0.57499981 4280559181
-1.034964 0.51539677 0.5745315 4280756302
-1.0258058 0.51590919 0.57399577 4280822095
-1.0173351 0.51474798 0.57449532 4280887632
-1.0079103 0.51363647 0.57628065 4280690509
-0.99137706 0.51759541 0.57667619 4280756045
-0.98192179 0.5170241 0.5752275 4280887372
-0.97342116 0.51621926 0.57339257 4281017932
-0.96520388 0.51586205 0.57525206 4281149261
-0.95581913 0.51561427 0.57370126 4281411405
-0.94542766 0.51727134 0.57756853 4281215311
-0.93629432 0.51543176 0.57472974 4281083983
-0.92292136 0.51547855 0.57431704 4281018447
-0.91546988 0.51414937 0.575445 4280952911
-0.90676117 0.51202244 0.57567942 4281018960
-0.89840019 0.51166749 0.57456195 4281018705
-0.88337606 0.51326483 0.57503814 4280821583
-0.87588364 0.51207465 0.57464975 4280755790
-0.86430526 0.51297492 0.57534373 4280689741
-0.85358632 0.51343906 0.57465684 4280623947
-0.84560043 0.5142743 0.57554847 4280623948
-0.83494401 0.51327676 0.57494003 4280558411
-0.82354891 0.5121969 0.5759812 4280558668
-1.144446 0.52259105 0.57172531 4281149003
-1.1347141 0.52330065 0.57962626 4281344843
-1.1233921 0.52032286 0.57245201 4281082699
-1.113306 0.52092296 0.57356501 4280951625
-1.1030437 0.52146083 0.5713349 4280820808
-1.0938231 0.5216971 0.57084382 4280689736
-1.0837599 0.52240199 0.57192582 4280558410
-0.98269731 0.52116001 0.57131815 4280624716
-1.1340023 0.56620425 0.57052076 4283984755
-1.1247969 0.56991136 0.57484877 4283787889
-1.1262643 0.57583702 0.57660687 4283062887
-1.1286578 0.58625722 0.57583368 4279046958
-1.1305422 0.59440565 0.57549065 4279769402
-1.125783 0.59611344 0.57512391 4279834939
-1.1229006 0.60593438 0.5744341 4280097342
-1.1251495 0.61565882 0.5740248 4280229700
-1.1272817 0.62496591 0.57321709 4279902276
-1.1305804 0.63844663 0.57639301 4280492103
-1.124432 0.63498497 0.57528007 4280164422
-1.1198227 0.6316998 0.57780176 4279902277
-1.1311463 0.64159071 0.57293326 4280491848
-1.123199 0.64650756 0.57618523 4280492104
-1.1249526 0.6542291 0.57519799 4280295495
-1.1271901 0.66390538 0.57479072 4280754762
-1.1304222 0.67788202 0.57420242 4281082956
-1.1291887 0.67264611 0.57394975 4280950856
-1.1410748 0.68382746 0.57448286 4281018447
-1.1321313 0.68520266 0.57422531 4280886861
-1.1347098 0.69619155 0.57453537 4280493387
-1.1371397 0.70632344 0.57590228 4280755789
-1.1401443 0.71888244 0.577443 4281018187
-1.1390678 0.71467316 0.57549179 4280952652
-1.1415448 0.72528481 0.57551807 4280756557
-1.1437821 0.73496097 0.57511073 4281018703
-1.1460201 0.74463719 0.57470345 4280887118
-1.1482576 0.75431335 0.57429624 4280363343
-1.1508681 0.76560229 0.57382101 4280822353
-1.1497494 0.76076412 0.57402462 4280363600
-1.1528441 0.77400768 0.57412934 4281018705
-1.1555263 0.78505158 0.57631326 4280822352
-1.1581368 0.79634041 0.57583809 4280757071
-1.1607474 0.80762929 0.57536292 4280953167
-1.1596285 0.80279118 0.57556659 4280822351
-1.1626121 0.81569284 0.57502347 4281346899
-1.1746083 0.82674521 0.57844943 4281543250
-1.164691 0.82488054 0.57369077 4281609043
-1.1767901 0.83678961 0.57511514 4281412178
-1.1664683 0.83283025 0.57209486 4281411922
-1.1789222 0.84609669 0.5743075 4281544021
-1.191331 0.85493821 0.57567692 4281544021
-1.1805488 0.8535952 0.57177353 4281478742
-1.2043405 0.86707801 0.57355565 4281086809
-1.1931854 0.86318982 0.5742144 4281413462
-1.2061707 0.87475777 0.57435387 4281349463
-1.1949717 0.87021387 0.57726449 4280825434
-1.2080654 0.88295084 0.57400888 4282005087
-1.4043555 0.4186078 0.58083534 4281083210
-1.4058915 0.42443189 0.58449763 4280690246
-0.67895871 0.42909828 0.58034623 4278651430
-1.4080921 0.43394804 0.58409709 4281943900
-0.68042165 0.43433222 0.58534187 4279308077
-0.67660964 0.43451035 0.58537185 4279110954
-1.4111731 0.44727069 0.58353627 4283393650
-1.4098527 0.44156101 0.58377659 4283458932
-1.3977692 0.44642055 0.58680832 4283524725
-0.67653191 0.44400728 0.58578026 4279570479
-1.4129336 0.45488364 0.58321583 4283656306
-1.4003938 0.45777026 0.58633059 4283656818
-1.3990815 0.45209539 0.58656943 4283459442
-0.67887217 0.45412692 0.58535421 4279964724
-1.4012688 0.46155345 0.58617133 4283656559
-0.68121237 0.46424648 0.58492833 4280228153
-0.70275044 0.47762978 0.58311021 4280492612
-0.69487858 0.47693375 0.58601588 4280491842
-0.68602878 0.47263706 0.58452821 4280229182
-0.70467305 0.48539305 0.58541346 4281148489
-0.69786251 0.48216206 0.58771002 4281213767
-0.74002182 0.49966809 0.58852446 4281016137
-0.73563617 0.49663872 0.58420163 4280950344
-0.72645551 0.49510038 0.58512402 4280753992
-0.71450186 0.49443606 0.58560574 4280558154
-0.70615423 0.49179816 0.5851438 4280623690
-0.83432829 0.50966156 0.58789593 4280886349
-0.8228538 0.50747156 0.58439255 4280493132
-0.81582278 0.50799364 0.58528388 4280427339
-0.80523539 0.50855935 0.58530968 4280427081
-0.79552996 0.50915807 0.5851897 4280623689
-0.78573066 0.50871259 0.58452481 4280820297
-0.77454942 0.50721276 0.58587623 4281081929
-0.76561397 0.50435573 0.58494586 4280753992
-0.75760108 0.50088316 0.58480698 4280753992
-0.74091864 0.50427735 0.5848375 4280885064
-1.1334702 0.51685894 0.58497107 4281148489
-1.123111 0.51614839 0.58675706 4280952138
-1.1125872 0.51553744 0.58466554 4280755530
-1.1022791 0.51536757 0.58490109 4280558923
-1.0930623 0.51563406 0.58434266 4280558668
-1.0829124 0.51632434 0.5837056 4280493133
-1.0736457 0.51568907 0.58646113 4280755021
-1.0644521 0.51605874 0.58588189 4280820556
-1.0540961 0.51599717 0.58460987 4280820812
-1.0446638 0.51519978 0.58472794 4281017934
-1.0354953 0.51567858 0.58414406 4281018190
-1.0264223 0.51623625 0.58515269 4281083983
-1.0178339 0.51462477 0.58539283 4281084240
-1.0084337 0.51391411 0.58575016 4280887118
-0.99145633 0.5163002 0.58455378 4281018704
-0.98184967 0.51472461 0.58481801 4280953168
-0.97353888 0.51429588 0.58509111 4280887375
-0.96533638 0.51417559 0.5861147 4280822095
-0.95613778 0.51469123 0.58472955 4280953424
-0.94785041 0.51436788 0.58497936 4281084240
-0.93509424 0.51508474 0.58497924 4281149776
-0.92350245 0.51578683 0.58483231 4280952654
-0.91604859 0.51445627 0.58591539 4280952397
-0.90725368 0.51210177 0.58546937 4280821325
-0.8988061 0.51124907 0.5849601 4280952656
-0.88395613 0.51375198 0.58467215 4280952399
-0.87662899 0.51297015 0.58572894 4281017935
-0.86486632 0.51327246 0.5854966 4280951885
-0.85414362 0.51373476 0.58474231 4280951372
-0.8460415 0.51401752 0.58589292 4281214030
-0.83640039 0.5129984 0.58276904 4281279566
-0.82360375 0.51077384 0.58397037 4280755276
-0.77520895 0.51049578 0.58367884 4280951369
-1.134969 0.52307439 0.58597791 4281279306
-1.1263292 0.57415569 0.58604586 4283064685
-1.1301503 0.58990842 0.58906311 4279506484
-1.1277966 0.58008134 0.58780384 4282077024
-1.1190954 0.58756369 0.5843578 4279048753
-1.1323192 0.59963751 0.5869807 4280358716
-1.1212735 0.59689522 0.58438087 4279834423
-1.1197954 0.59006786 0.58674794 4278653482
-1.1330729 0.60289687 0.58684349 4280621632
-1.1236781 0.60748422 0.58302015 4280425280
-1.1257005 0.61595112 0.58399481 4280360772
-1.1278785 0.62528259 0.58401793 4280360774
-1.1307565 0.63711816 0.58643126 4281016393
-1.1296321 0.63225597 0.58663589 4280819013
-1.1325598 0.64482892 0.58652258 4280426824
-1.1256877 0.65542763 0.5846073 4280426824
-1.1277384 0.66419613 0.58471119 4280689226
-1.1305811 0.67631555 0.58502883 4280427339
-1.1294919 0.67191774 0.58372402 4280492618
-1.1324682 0.68471253 0.5835467 4280165707
-1.1448078 0.69718307 0.58723038 4280624716
-1.1349266 0.69504893 0.58451623 4280362828
-1.1460688 0.70313346 0.58460319 4280558923
-1.1378003 0.70632011 0.58955997 4280623946
-1.150147 0.71992218 0.587937 4281214539
-1.1477261 0.71490556 0.58599597 4281082954
-1.1396725 0.71580249 0.58253902 4281214539
-1.1509883 0.72321242 0.58946222 4281346125
-1.1425037 0.7274915 0.5846957 4281346382
-1.1443305 0.73525178 0.58503127 4281149773
-1.1465682 0.744928 0.58462399 4280953168
-1.1488059 0.7546041 0.58421671 4280953168
-1.1510434 0.76428032 0.58380944 4281215056
-1.1533419 0.77398884 0.58450437 4281411152
-1.1557015 0.78372967 0.58630162 4281411664
-1.1678529 0.79586065 0.5877353 4281281104
-1.1578478 0.79335731 0.58424091 4281412432
-1.170478 0.80749106 0.58591473 4281477458
-1.1693535 0.80262882 0.58611941 4281346128
-1.1716024 0.81235331 0.58571005 4281543251
-1.1639062 0.81920892 0.58480829 4281543764
-1.1746007 0.82531923 0.58516431 4281477970
-1.164652 0.82243437 0.58467245 4281477971
-1.1875391 0.83653194 0.58604294 4281412691
-1.1762344 0.83248293 0.58438748 4281477971
-1.1901572 0.8476432 0.58657897 4281347155
-1.1890695 0.84338963 0.58460712 4281412691
-1.1914551 0.85369331 0.58423316 4281347155
-1.1826553 0.85945225 0.58705503 4281347412
-1.1939048 0.86428624 0.58378732 4281413463
-1.1834049 0.86269379 0.58691859 4281413205
-1.2072499 0.87748653 0.58349025 4281808220
-1.1960236 0.87327397 0.58424544 4281414233
-1.2086226 0.88324636 0.58408892 4282070112
-1.4064307 0.4247179 0.59425402 4280689989
-1.4086022 0.43380111 0.59533697 4281811801
-0.67488068 0.43516114 0.59429765 4279242024
-1.3980327 0.44573057 0.59557533 4283524468
-0.67715818 0.44465655 0.59558427 4279242798
-1.4006575 0.45708025 0.5950976 4283591025
-1.39938 0.45192176 0.59356713 4283459442
-0.68032306 0.45822585 0.59556961 4279505975
-0.67915303 0.45316604 0.59578264 4279374643
-1.4016975 0.46178088 0.59392887 4283722352
-0.68178564 0.46455064 0.59530342 4279966009
-0.70369989 0.47925726 0.59487671 4280689478
-0.69408745 0.47758067 0.59550864 4280360769
-0.68519902 0.47261679 0.59508717 4280097853
-0.70529848 0.48594952 0.59564704 4280820551
-0.69851297 0.48250708 0.59948099 4280951879
-0.74039257 0.49986476 0.59523344 4280885320
-0.73337507 0.49629426 0.59489226 4280819527
-0.7246809 0.49570063 0.5951187 4280492103
-0.7140159 0.49460652 0.59501189 4280164937
-0.7067349 0.49210617 0.59565091 4280230986
-0.84509933 0.50910187 0.59011841 4280886606
-0.83100176 0.5099954 0.59189445 4280558668
-0.82324457 0.50767887 0.59146357 4280296780
-0.81636727 0.50828254 0.59513831 4280427596
-0.8066476 0.50883138 0.5949654 4280493131
-0.79606742 0.50944322 0.59491593 4280558666
-0.78614199 0.50772309 0.59460229 4280623946
-0.77481151 0.50676507 0.59344554 4280492360
-0.76460916 0.50413221 0.59499419 4280557897
-0.75393939 0.50128406 0.59217238 4280819785
-0.74307328 0.50407785 0.59555805 4280754504
-0.73427927 0.50020444 0.59472769 4280885320
-1.133937 0.51710647 0.59341693 4281214540
-1.1235552 0.51609635 0.59617883 4281083466
-1.112999 0.51504093 0.59556019 4280886603
-1.1028299 0.51565981 0.5948711 4280886092
-1.0932757 0.5146153 0.59365612 4281016911
-1.0830867 0.51500976 0.59363866 4281082448
-1.0742046 0.51621878 0.59544802 4281082703
-1.0649918 0.51634502 0.59564847 4280951885
-1.0544981 0.51556408 0.59499985 4280886348
-1.0449556 0.51443583 0.59443408 4280952397
-1.0357535 0.51444465 0.59542447 4281083727
-1.027215 0.5166567 0.59949726 4280952399
-1.0185964 0.51590186 0.59498334 4281018704
-1.0092766 0.51544166 0.59579921 4280821583
-0.99571991 0.5149312 0.59427899 4280756046
-0.98223275 0.51426274 0.59495366 4280690510
-0.97354347 0.51191527 0.59665406 4280690768
-0.96526814 0.51194328 0.59545869 4280690767
-0.95643055 0.51419127 0.59318435 4280887633
-0.94374502 0.51490617 0.59465271 4281215055
-0.9322238 0.51560986 0.59595728 4281215310
-0.92408353 0.51609498 0.5953477 4281281103
-0.91654444 0.51471931 0.59489006 4281083983
-0.90531951 0.51355475 0.59513968 4280952397
-0.89949626 0.51212209 0.5950073 4281018191
-0.88484222 0.51529819 0.59552091 4281017935
-0.87734342 0.51409918 0.595043 4281017935
-0.86488199 0.51357257 0.59498733 4280951629
-0.85445654 0.51284391 0.59549606 4280951373
-0.84598362 0.51202422 0.59430104 4281279309
-0.83433223 0.51201588 0.5952127 4281148237
-0.82411695 0.51056194 0.59559005 4280755276
-0.8170802 0.51107001 0.59643054 4280624204
-0.78913099 0.51010168 0.5971036 4280492617
-0.7760424 0.51093793 0.5987612 4280689482
-0.7689687 0.51158786 0.59815407 4280623689
-1.1454784 0.52313864 0.59040689 4281017417
-1.1357195 0.52419531 0.59607828 4281082699
-1.1353021 0.5668937 0.59404069 4283918708
-1.1366272 0.57238859 0.59493083 4283391597
-1.1264663 0.57222676 0.59817183 4283721330
-1.1289198 0.58353662 0.59434992 4280494400
-1.1316502 0.59499329 0.5955407 4280292664
-1.1342883 0.60640115 0.59506047 4280621891
-1.1359804 0.6130178 0.59812772 4280361031
-1.1266644 0.61816871 0.59321821 4280229958
-1.1285002 0.6259678 0.59355545 4280361030
-1.1310494 0.63620704 0.59686786 4280557639
-1.1299994 0.63245076 0.59328252 4280819784
-1.1331815 0.64551419 0.59606004 4280033606
-1.1353595 0.6548456 0.59608328 4280492360
-1.1377709 0.66501176 0.59690315 4281015880
-1.1281039 0.66438997 0.59132487 4280557640
-1.1308973 0.67577583 0.5941565 4280754249
-1.1295956 0.6708408 0.59105337 4280360262
-1.1327618 0.68383926 0.59381711 4280755019
-1.1451751 0.69737792 0.59387708 4280952140
-1.1350604 0.69354779 0.59451216 4280755532
-1.1380745 0.70646548 0.59452021 4281082698
-1.15004 0.7170217 0.5997051 4281082953
-1.1488791 0.71292996 0.59544075 4281148233
-1.1511294 0.72214967 0.59749281 4281214540
-1.1429226 0.72743064 0.59363776 4281280589
-1.1549125 0.73809135 0.59881818 4281149776
-1.1447626 0.73512727 0.59455538 4281083469
-1.1471869 0.74560982 0.59411412 4281084240
-1.1501913 0.75816882 0.59565485 4281150034
-1.1491147 0.7539596 0.59370357 4280952911
-1.1605345 0.76240247 0.59779495 4281149778
-1.1515689 0.76455903 0.59331656 4281280850
-1.153759 0.77385628 0.59375292 4281214545
-1.1659092 0.78610843 0.5945788 4281149263
-1.1556306 0.78180557 0.5941081 4281082957
-1.1680305 0.79481727 0.59643054 4281215313
-1.1706542 0.8061626 0.59595299 4281149521
-1.1695298 0.80130035 0.59615761 4281215313
-1.1725281 0.81426632 0.59561187 4281149778
-1.1747769 0.82399082 0.59520257 4281149776
-1.1878244 0.83592075 0.59487927 4281346898
-1.1768066 0.83265096 0.59539258 4281281362
-1.1906189 0.84788805 0.59493315 4281347412
-1.1875583 0.84371579 0.59428859 4281215569
-1.1794583 0.84353709 0.59770721 4281215826
-1.1920956 0.85439044 0.59410185 4281281876
-1.1823342 0.8564381 0.59494591 4281216083
-1.194505 0.86460459 0.59464771 4281478742
-1.1835885 0.86279118 0.59024191 4281478998
-1.2080427 0.87862593 0.59437579 4281938267
-1.1966488 0.87396306 0.59383559 4281872473
-1.2091795 0.88354182 0.5941689 4282135393
-1.4068232 0.42436945 0.60403723 4281018439
-1.3961091 0.43558252 0.60474044 4281283918
-0.67557603 0.43617564 0.6037693 4279439145
-1.3982964 0.44504058 0.60434234 4283458418
-0.67748249 0.44419438 0.60450774 4279177261
-1.3878394 0.45737073 0.60497469 4283590769
-0.68060392 0.45726499 0.60599798 4279243830
-0.67936212 0.45216718 0.60491407 4279178547
-1.3901198 0.46682718 0.60650647 4283459953
-1.389308 0.46392241 0.60373402 4283657074
-0.68235898 0.46485478 0.60567844 4279769145
-0.69305283 0.47708052 0.60550225 4280294462
-0.6844067 0.47370937 0.60530585 4280163132
-0.71287948 0.48941153 0.60815138 4280034630
-0.70530581 0.48610243 0.60486299 4280689736
-0.69817883 0.48226032 0.60650635 4280689477
-0.73389393 0.49695066 0.60244638 4280558150
-0.72341818 0.49686083 0.60536563 4280230471
-0.71425515 0.49324486 0.60394067 4279903559
-0.70717037 0.49233717 0.60353124 4280034889
-0.84597069 0.5095641 0.60588634 4280755533
-0.83875769 0.50991285 0.60385668 4280951885
-0.81459379 0.50876629 0.6057182 4280623948
-0.80631727 0.50913316 0.60488498 4280754762
-0.79660487 0.50972831 0.60464215 4280885577
-0.78881282 0.50756586 0.60274935 4281409866
-0.76544553 0.50593328 0.60508686 4280624201
-0.75502396 0.50324947 0.60510129 4280427591
-0.7436254 0.50294751 0.60468447 4280558150
-0.73515999 0.50165182 0.60594374 4280623688
-0.72890639 0.50095558 0.60752904 4280426567
-1.134497 0.51740354 0.60355192 4281345356
-1.1241121 0.51639193 0.60625881 4281149002
-1.1135529 0.51533478 0.60558522 4281017674
-1.103381 0.51595211 0.60484105 4280951627
-1.0941588 0.51621562 0.60418367 4280951372
-1.0840029 0.51690274 0.60343665 4281082447
-1.0749767 0.51732832 0.60604846 4281148241
-1.0657762 0.51768976 0.60537034 4281082702
-1.0552782 0.51690131 0.60466713 4281017421
-1.0457317 0.5157662 0.60405201 4280951885
-1.0364654 0.5155077 0.60500419 4281017421
-1.0274792 0.51679683 0.6042788 4280886349
-1.0147686 0.51726294 0.60491145 4281017935
-1.0049094 0.51477844 0.60433662 4280952655
-0.99241924 0.51600868 0.60584474 4281083471
-0.98283404 0.51458168 0.60583478 4280886862
-0.97395235 0.51186746 0.60533041 4280887119
-0.96543127 0.51071221 0.60476053 4280821325
-0.95641673 0.51156282 0.60556221 4281018701
-0.94681519 0.51268494 0.60567516 4281150031
-0.93264091 0.51583111 0.6035049 4281150287
-0.92458159 0.51635927 0.60436082 4281216080
-0.91712308 0.51502627 0.60536045 4281018960
-0.90457636 0.51408315 0.60555148 4280953424
-0.89987016 0.51181352 0.60421455 4280953169
-0.88499779 0.51412511 0.60438538 4280887377
-0.87757897 0.51297402 0.60532963 4280821328
-0.86924016 0.51248372 0.60531867 4280624206
-0.85493326 0.51292068 0.60497242 4280623692
-0.84653813 0.51231837 0.60433525 4281083214
-0.83419174 0.51069564 0.60486174 4280623947
-0.82466406 0.51085216 0.60548949 4280362060
-0.81479532 0.51156312 0.60631359 4280427339
-0.78715479 0.51041293 0.60574305 4281213258
-0.77642131 0.51113886 0.60561681 4281082442
-0.76934576 0.51178789 0.60497761 4281016906
-1.1359922 0.52356559 0.60474217 4281344844
-1.1375682 0.57528377 0.60041583 4282930534
-1.1273761 0.57449651 0.6060226 4283392621
-1.1380175 0.58269393 0.60432136 4279375919
-1.1288124 0.58062005 0.60618299 4282930790
-1.1422935 0.59360415 0.6097371 4279900220
-1.1317101 0.59323788 0.60523367 4279571508
-1.1343459 0.60461193 0.60486895 4280425026
-1.136537 0.61378962 0.60590202 4280229188
-1.1273683 0.61967969 0.60047495 4280230472
-1.1290512 0.62626004 0.6035254 4280164679
-1.1314836 0.63608193 0.60643941 4280492103
-1.144918 0.64921367 0.60831439 4280558153
-1.1338031 0.64619935 0.60559767 4280099143
-1.1361691 0.65644306 0.60510713 4280885833
-1.1494403 0.66876984 0.60749125 4280623689
-1.1382301 0.66525531 0.6052115 4280950857
-1.1501939 0.67202926 0.60735404 4280623946
-1.1409785 0.67714077 0.60471117 4280558153
-1.1395456 0.67164087 0.60161525 4280885320
-1.1426879 0.68411434 0.60641408 4280493386
-1.1331273 0.68403316 0.60043079 4280296265
-1.1453497 0.69576424 0.60525829 4280755786
-1.1353256 0.69312245 0.60203475 4280362314
-1.1472253 0.70415318 0.60357416 4281083210
-1.1504073 0.71721649 0.60635173 4280951369
-1.1492829 0.71235424 0.60655642 4280951882
-1.1517899 0.72328216 0.60568047 4281214541
-1.144118 0.72947949 0.60845065 4281214542
-1.1551681 0.73794252 0.60481387 4281083726
-1.145054 0.73422068 0.60494018 4281215055
-1.157387 0.74722463 0.60592049 4281018191
-1.1480376 0.74712223 0.60439712 4281149776
-1.160244 0.75940454 0.60623968 4280624204
-1.1591623 0.75517428 0.60427862 4281083985
-1.1615969 0.76540357 0.60527414 4281214545
-1.152703 0.76799041 0.60020781 4281346390
-1.1639001 0.7755633 0.60389578 4281411153
-1.1534489 0.7712158 0.60007203 4281280597
-1.1662607 0.78563136 0.60413748 4281608017
-1.1685815 0.79510963 0.60640055 4281608530
-1.170947 0.80525142 0.60638946 4281345873
-1.1698971 0.80149519 0.60280424 4281477202
-1.173079 0.81455863 0.60558188 4281149777
-1.1753279 0.82428306 0.60517246 4281018447
-1.188647 0.8371197 0.60609293 4281281105
-1.1773363 0.83306742 0.6043275 4281149776
-1.1804336 0.84618735 0.60508239 4281215569
-1.1797338 0.84368324 0.60269219 4281150033
-1.1823301 0.85462624 0.60359281 4281150290
-1.1956029 0.86768913 0.60246414 4281675865
-1.1849045 0.86538523 0.60492134 4281216853
-1.2084568 0.8781268 0.60533023 4281545050
-1.1970854 0.87383723 0.60346001 4281610072
-1.2103012 0.8855744 0.60753989 4281544802
-1.2095007 0.88299334 0.60344338 4281676384
-1.4075091 0.42528987 0.61376691 4280953417
-1.3951097 0.42841402 0.61863458 4281280844
-1.4087216 0.43094236 0.61157531 4281350223
-1.3968313 0.43643975 0.61552274 4281613137
-0.67635351 0.43725395 0.61463118 4279307815
-1.3985435 0.44461849 0.61147982 4283918452
-1.3863049 0.44830975 0.61693507 4284246132
-0.67810863 0.44484362 0.61431175 4279373611
-1.3879374 0.4557732 0.61469114 4284049778
-0.68081307 0.45626619 0.61512935 4279637302
-0.6796453 0.45165157 0.61324608 4279374384
-1.3905458 0.46705317 0.61421633 4283524977
-1.3896763 0.46329319 0.61437452 4283853169
-0.68297654 0.46540421 0.61578363 4279965755
-0.6919263 0.47737208 0.61557114 4280490555
-0.68487847 0.47373772 0.6149134 4280425019
-0.7132439 0.48960483 0.61474574 4280492869
-0.70510811 0.48707914 0.61458093 4280558664
-0.69723028 0.48195717 0.61483502 4280688706
-0.73463643 0.49810687 0.61220932 4280557642
-0.72459799 0.49787799 0.61443877 4280622920
-0.71450776 0.49497774 0.61495984 4280755014
-0.70723104 0.4901216 0.6154595 4280427078
-0.85475457 0.50912708 0.61955774 4281476174
-0.84636414 0.50928223 0.61537063 4280951884
-0.83890253 0.50754732 0.61824417 4281213516
-0.81397867 0.50915223 0.61592257 4280885836
-0.80424243 0.50946361 0.61503547 4280885836
-0.79698879 0.50993198 0.61158937 4280820299
-0.78356624 0.50819117 0.61876595 4280558411
-0.76363921 0.50662589 0.615493 4280623946
-0.75536484 0.50281245 0.61424595 4280557897
-0.7443487 0.50214922 0.61497909 4280687945
-0.73538703 0.50079203 0.6147722 4280753740
-0.72942114 0.50122875 0.61684459 4280950345
-0.71584243 0.50001204 0.61826926 4281016906
-1.1348704 0.51760161 0.61030853 4281279562
-1.125048 0.51832598 0.61626983 4281018700
-1.1144838 0.51725835 0.61554158 4280953163
-1.1041156 0.51634175 0.61813438 4280690250
-1.0949688 0.51777726 0.61338854 4280755276
-1.0846388 0.51724011 0.61494637 4280952143
-1.0755191 0.51761609 0.61586446 4281017423
-1.0661774 0.51720607 0.6159842 4281345359
-1.055706 0.51685125 0.61374444 4281411151
-1.0459024 0.51447874 0.6137802 4281345359
-1.0365433 0.51349252 0.61631745 4281345358
-1.0274649 0.51406145 0.61716038 4281476943
-1.016224 0.51487273 0.61463678 4281345871
-1.0055175 0.51510108 0.61534321 4281214798
-0.99307841 0.51689321 0.6151951 4281280591
-0.9832238 0.51421827 0.61563271 4281215310
-0.97436142 0.5118196 0.61400688 4281149775
-0.96594191 0.51098299 0.61399913 4281281104
-0.95683986 0.51178724 0.6132198 4281084237
-0.94476986 0.51250798 0.6152404 4281347152
-0.93271071 0.51328462 0.61721456 4281478738
-0.92473948 0.51490039 0.61464971 4281347409
-0.91723692 0.51316673 0.61667085 4281150288
-0.90473402 0.51289618 0.61452478 4280953169
-0.89342338 0.51238817 0.6169185 4281018706
-0.88531816 0.51354158 0.61381263 4280953170
-0.87493819 0.51357287 0.61584312 4280821329
-0.86494923 0.51275712 0.6144591 4280623951
-0.85524786 0.51234782 0.6142289 4280755023
-0.84701341 0.5125705 0.61293596 4280821327
-0.83574456 0.51041281 0.61352479 4280754763
-0.82521111 0.51114237 0.61538887 4280951629
-0.81809151 0.51160651 0.61473173 4281017422
-0.79159158 0.51147288 0.61654395 4280689485
-0.78514653 0.51070726 0.61380303 4280623691
-0.7745921 0.51163602 0.61498237 4280492875
-0.76979828 0.51202792 0.61316592 4280558668
-1.1365092 0.52389139 0.6138491 4281345356
-1.125806 0.52160323 0.6161319 4281083724
-1.1362305 0.56738615 0.61084062 4283458925
-1.1278588 0.57439518 0.61648232 4283917166
-1.1327362 0.58485901 0.61372131 4280361785
-1.1295086 0.58170426 0.61533827 4282928222
-1.1426029 0.5937683 0.61533707 4280359487
-1.1323506 0.59393507 0.61510223 4279833396
-1.1347598 0.6041491 0.61564821 4280687428
-1.1369036 0.61350763 0.61483598 4280622405
-1.1405443 0.62878329 0.61642355 4280819784
-1.1353753 0.62460482 0.61472511 4280426310
-1.1292299 0.62540686 0.61132532 4280295494
-1.1423403 0.6368168 0.61481088 4280557896
-1.1445335 0.64615023 0.61513495 4280492616
-1.1461333 0.65271795 0.61653137 4280885577
-1.1372818 0.65906459 0.61545438 4280951113
-1.1500866 0.66911274 0.61918706 4280362058
-1.1490059 0.66496509 0.61685228 4280230472
-1.1382945 0.66358322 0.61459863 4280361801
-1.1411005 0.67566502 0.61433965 4280362315
-1.1432786 0.68499649 0.61436284 4280297033
-1.1455274 0.69472098 0.61395341 4280559691
-1.1477762 0.70444542 0.61354423 4280624970
-1.1505834 0.71588808 0.61638999 4280820554
-1.1494591 0.71102577 0.61659461 4280821065
-1.1522696 0.72307956 0.61656255 4280886347
-1.144392 0.72962493 0.61341083 4281280335
-1.1548899 0.73381358 0.61896282 4280885578
-1.1458838 0.7360757 0.61313933 4281148749
-1.1576239 0.74623299 0.61558807 4281149007
-1.1477485 0.74413913 0.61279994 4281149264
-1.1706222 0.75721359 0.61882454 4281018962
-1.1636971 0.75771761 0.61491144 4280887119
-1.1593288 0.75370532 0.61479813 4280952142
-1.1720374 0.76368332 0.61687928 4280690769
-1.1620188 0.76603365 0.61095178 4281018193
-1.1735449 0.77020204 0.61660492 4280625489
-1.1646391 0.77676779 0.61335212 4280952656
-1.1667612 0.78561252 0.61456418 4281084239
-1.1700656 0.7987408 0.61955738 4280625998
-1.1690159 0.79498458 0.6159721 4280953679
-1.1713812 0.80512631 0.61596119 4280560464
-1.17363 0.81485081 0.61555183 4280494672
-1.1758789 0.8245753 0.61514252 4281018704
-1.1890887 0.83706802 0.61546326 4281412178
-1.177753 0.83267897 0.61480141 4281215312
-1.1904041 0.84205502 0.61859912 4281543507
-1.1807896 0.84594953 0.61357737 4281412434
-1.1826253 0.85374868 0.61391461 4281347155
-1.185024 0.86412144 0.61347795 4281216853
-1.208685 0.87752903 0.6129247 4281348441
-1.1976311 0.87400746 0.61390847 4281152087
-1.1870235 0.871723 0.61814916 4280889686
-1.2106725 0.88577145 0.61425984 4281675875
-1.2066154 0.88310552 0.61408377 4281610591
-1.1994489 0.88116741 0.61695284 4281348699
-1.395324 0.42852771 0.62251329 4281280587
-1.3972269 0.43617541 0.62496531 4282071891
-1.3833594 0.43355235 0.62720543 4281476939
-0.68228114 0.43308967 0.62972993 4279177258
-0.67693788 0.4377225 0.62444288 4279045671
-1.4001271 0.44767123 0.62947452 4283721843
-1.399145 0.44383118 0.62769443 4283784812
-1.3865179 0.44842276 0.62079 4284114291
-0.67868197 0.44514775 0.62468684 4279045931
-1.4005733 0.45122707 0.62155783 4283983728
-1.3887597 0.45730904 0.62427562 4283656048
-0.681095 0.45552799 0.62450963 4279506485
-0.67992961 0.45135847 0.62052995 4279637042
-1.4031979 0.46257675 0.6210801 4283786609
-1.3907502 0.46551219 0.62586021 4283459184
-1.3899959 0.46346268 0.62015694 4283852656
-0.69036251 0.468582 0.62562799 4280359739
-0.68334448 0.46512133 0.62474501 4280162360
-0.69255465 0.47506785 0.62466258 4280491069
-0.70521408 0.48559377 0.62501514 4280558151
-0.69872284 0.48169214 0.62366372 4280623171
-0.74164099 0.49823058 0.62888855 4280426825
-0.73526114 0.49786648 0.62626785 4280491591
-0.72460252 0.49947098 0.62487245 4280426310
-0.71501684 0.49505973 0.62508029 4280361798
-0.70803541 0.49167216 0.62459928 4280361799
-0.96558762 0.50815994 0.62028462 4281478223
-0.91667604 0.50838929 0.62810409 4281477968
-0.90838504 0.50888079 0.62435222 4281346897
-0.86588216 0.50884676 0.62779653 4281148240
-0.85507303 0.50929612 0.62532085 4281410895
-0.8461954 0.50722998 0.62177199 4281410381
-0.82504201 0.5086323 0.6239903 4281280336
-0.81324297 0.50825363 0.62532443 4280886350
-0.79011214 0.50825506 0.626261 4280886349
-0.78513408 0.50834113 0.62494534 4280755020
-0.77549326 0.50918263 0.62559807 4280951627
-0.76585698 0.50598806 0.62456083 4280951113
-0.75573474 0.50223643 0.62466145 4281147723
-0.74630958 0.50139642 0.62513334 4280885065
-0.73583007 0.50102705 0.62278998 4280884552
-0.71620685 0.5002054 0.62486368 4280295495
-1.1256051 0.51862144 0.62634981 4280822348
-1.1150378 0.51755226 0.62556654 4280691017
-1.1044829 0.51653659 0.62478107 4280690762
-1.0949934 0.51552647 0.6247403 4280886862
-1.0845332 0.51436996 0.62659115 4281149007
-1.0753236 0.51471239 0.6258148 4281082699
-1.06626 0.51585698 0.62418985 4281410892
-1.0556214 0.51431316 0.62422305 4281608271
-1.0461621 0.51323849 0.62511867 4281345356
-1.036938 0.51301652 0.62676394 4281148746
-1.0278171 0.51424837 0.62353575 4281214539
-1.0145 0.51480085 0.62487447 4281215309
-1.0015529 0.51573205 0.62596411 4281215566
-0.99334913 0.51596695 0.62524766 4281216080
-0.98368996 0.51446569 0.62407112 4281216080
-0.97494268 0.512128 0.62452716 4280953678
-0.96653748 0.51129901 0.6247775 4281150544
-0.95751691 0.51214641 0.62547201 4281544274
-0.94527406 0.51277536 0.62436348 4281741395
-0.93287176 0.51226288 0.62546217 4281610067
-0.92438841 0.51111495 0.62563813 4281347152
-0.91718549 0.5112195 0.62498975 4281346896
-0.90897429 0.51174074 0.62274152 4281215824
-0.89407539 0.512734 0.62871605 4281347152
-0.88603437 0.51442385 0.62435353 4281412178
-0.87439376 0.51284957 0.62506855 4281280081
-0.86621577 0.51150602 0.62187576 4281148240
-0.85556376 0.5120222 0.62232101 4281279054
-0.84423959 0.51031578 0.62595922 4281279821
-0.8342182 0.51086223 0.62442195 4281214029
-0.82575816 0.51143259 0.62528831 4281214543
-0.81879163 0.51197791 0.62740183 4281149264
-0.79420811 0.51062584 0.62512416 4280886607
-1.1365229 0.52209187 0.62280393 4281018190
-1.1263629 0.52189875 0.62621188 4280822092
-1.1282957 0.57426941 0.62610674 4283130988
-1.1408806 0.58458835 0.62399364 4279969084
-1.139819 0.58079064 0.62036884 4280823361
-1.129828 0.58115888 0.62456214 4283392880
-1.1426573 0.59235942 0.62324601 4279835452
-1.1334045 0.5959239 0.62728643 4279179066
-1.1351964 0.60402334 0.62527263 4280031810
-1.1374577 0.61380148 0.624861 4280426053
-1.1404727 0.62683892 0.62431228 4280819784
-1.1393422 0.62194985 0.62451804 4280426823
-1.142357 0.63498735 0.62396926 4280820041
-1.1449952 0.64639509 0.62348914 4280361545
-1.147441 0.65627122 0.62641907 4280623432
-1.150456 0.66930866 0.62587041 4280558410
-1.1493253 0.66441959 0.62607622 4280688968
-1.1512097 0.67256802 0.6257332 4280362057
-1.1423303 0.67880577 0.62460566 4280230985
-1.1438296 0.68528873 0.62433273 4280166217
-1.1460785 0.69501323 0.62392348 4280559691
-1.1483272 0.70473772 0.62351412 4281149259
-1.1508763 0.71497697 0.62682647 4280952139
-1.1498264 0.71122062 0.62324131 4281411148
-1.1530085 0.72428405 0.62601882 4281017677
-1.1552572 0.73400843 0.62560952 4281280335
-1.1683919 0.74630803 0.62530601 4281215057
-1.1573181 0.74282068 0.62571394 4281280336
-1.1706147 0.7557798 0.62557644 4281083985
-1.169484 0.75089073 0.62578225 4280952142
-1.1724991 0.76392817 0.62523341 4280559697
-1.1743834 0.77207661 0.62489051 4280559953
-1.1657517 0.77938932 0.62369937 4280691023
-1.1671802 0.78547925 0.62385899 4280953166
-1.170433 0.79893559 0.62620401 4280952911
-1.1692168 0.79402465 0.62474704 4281215824
-1.1824822 0.80639791 0.6267916 4280889172
-1.1716919 0.80447859 0.62549537 4280756816
-1.174181 0.81514305 0.62552184 4280691281
-1.1871893 0.82605207 0.62931013 4281412436
-1.1763132 0.82445014 0.62471414 4281083984
-1.1901119 0.83904052 0.62709051 4281412179
-1.189394 0.83675337 0.62328339 4281411921
-1.1784906 0.83367974 0.6252169 4281346642
-1.1907734 0.842251 0.62528247 4281477971
-1.181677 0.84755796 0.62415743 4281346386
-1.1831763 0.85404086 0.6238845 4281412693
-1.1855369 0.86410892 0.62412626 4281347157
-1.2097138 0.87951237 0.62461573 4281545563
-1.1984282 0.87526429 0.62431109 4281283157
-1.1871079 0.87034577 0.62652564 4281413205
-1.210915 0.88494164 0.6232658 4281872995
-1.2006643 0.88467169 0.62516981 4281676894
-1.1996336 0.8812654 0.62029451 4281414491
-1.3967347 0.43259519 0.63205087 4281280582
-1.3841108 0.43505052 0.63550496 4281280329
-0.67750019 0.43786219 0.6353814 4278914857
-1.386394 0.44505826 0.63444048 4283059295
-0.68020457 0.44928476 0.63619906 4278783788
-0.67903626 0.44456738 0.63479954 4278783787
-1.3886743 0.45451474 0.63597226 4283262320
-0.68193626 0.45536897 0.63468724 4279178290
-1.3911269 0.46500513 0.63608211 4283459439
-1.3898721 0.46009821 0.63380742 4283197808
-0.69065046 0.46873471 0.63083756 4280359738
-0.6839357 0.46569106 0.63421005 4280424760
-0.69372511 0.47584853 0.63458359 4280294459
-0.68546993 0.47205386 0.63524067 4280425530
-0.70515102 0.48483384 0.63544196 4280427078
-0.6998021 0.48095259 0.63359338 4280295233
-0.74201173 0.49842724 0.63559753 4280492361
-0.7355904 0.4974694 0.63498122 4280492616
-0.72425276 0.49723545 0.63549578 4280557896
-0.71530247 0.4940826 0.6356855 4280623688
-0.70846891 0.49152747 0.63424867 4280558409
-0.92437488 0.50853682 0.637779 4281281873
-0.9168793 0.50785708 0.63486576 4281347409
-0.90879631 0.50909895 0.63179433 4281347152
-0.87536567 0.50847405 0.63791233 4281018449
-0.86495423 0.50862628 0.63446361 4281215058
-0.85565692 0.50960571 0.63588655 4281149520
-0.81440741 0.50881767 0.63464606 4280821326
-0.79049426 0.50845778 0.63317627 4281017421
-0.7844798 0.50867575 0.63529652 4281082956
-0.77453172 0.50955522 0.63366735 4281148492
-0.76608515 0.50479704 0.63500977 4280754505
-0.75504339 0.50323266 0.63530552 4280689226
-0.74515557 0.50235063 0.63530177 4280558153
-1.1259094 0.51782447 0.63647574 4280887883
-1.1150545 0.51572281 0.63472497 4280887626
-1.1042843 0.5135873 0.63488746 4281215311
-1.0949662 0.51381421 0.63242751 4281280593
-1.0848933 0.51393574 0.63612133 4281345870
-1.0752184 0.51185668 0.6374011 4281411918
-1.0661715 0.51325637 0.6348927 4281477711
-1.0559307 0.51378477 0.6331585 4281411918
-1.0466479 0.51280719 0.63722926 4281346382
-1.0371366 0.51216209 0.63498056 4281346895
-1.0252126 0.51255101 0.6345374 4281347409
-1.0109872 0.51436824 0.63629776 4280953935
-1.0018375 0.51498723 0.63542718 4280888399
-0.99363232 0.51522571 0.63466644 4280823120
-0.98392051 0.51349533 0.6335057 4280757584
-0.97522783 0.5112201 0.63478887 4280954192
-0.9671331 0.51161492 0.63555586 4281282386
-0.95485914 0.51263279 0.63617706 4281347669
-0.94400358 0.51275182 0.63463449 4281478996
-0.9332698 0.51203114 0.63479936 4281413202
-0.92488652 0.51137918 0.63465124 4281412945
-0.91759878 0.51143873 0.63246864 4281412945
-0.89427578 0.51220936 0.63538241 4281215570
-0.88595629 0.51187104 0.63503897 4281083985
-0.87724119 0.51154655 0.63353705 4281149264
-0.84517461 0.51053339 0.63431174 4281083726
-0.83319992 0.51116139 0.63167179 4281215057
-0.82686216 0.51390064 0.63619733 4280953168
-0.8176769 0.51175946 0.63515502 4280887119
-0.79474431 0.51091033 0.63482791 4280952142
-0.78525341 0.51144367 0.63793844 4280951885
-0.77054012 0.51008576 0.63784271 4281214027
-1.1369392 0.52158999 0.63381809 4280887630
-1.1268272 0.52214497 0.63461185 4280887628
-1.1375302 0.5680756 0.63436061 4283524718
-1.1392624 0.57556641 0.63404524 4283393392
-1.1287773 0.57392913 0.63769197 4283787119
-1.1413198 0.58446187 0.63367093 4280233539
-1.143021 0.59111482 0.63675493 4279704121
-1.1340084 0.59695911 0.63477087 4279507003
-1.1357505 0.60431719 0.6352976 4280097860
-1.1380117 0.61409533 0.63488603 4280230471
-1.1406499 0.62550312 0.63440585 4280623432
-1.1395192 0.62061405 0.63461161 4280361801
-1.1523012 0.63054025 0.63845962 4280491848
-1.1425111 0.63363922 0.63364518 4280819784
-1.1450528 0.64460593 0.63329756 4280296266
-1.1478443 0.65591317 0.63647163 4280099143
-1.150633 0.6679728 0.63596398 4280165447
-1.1495026 0.66308379 0.63616973 4280099655
-1.1522899 0.67485666 0.63701254 4280493128
-1.1427895 0.67904931 0.63291407 4280493128
-1.1542096 0.68273795 0.63868827 4280951624
-1.1444352 0.6860162 0.6333338 4280820808
-1.1466293 0.69530541 0.63389355 4280624458
-1.1489899 0.70537359 0.63413519 4281148235
-1.1513106 0.7148518 0.63639814 4281279051
-1.1534677 0.72452754 0.63432723 4281280078
-1.1663617 0.73493677 0.63816398 4281542478
-1.1554831 0.73341733 0.63312113 4281411407
-1.168691 0.74515945 0.63701677 4281542223
-1.1578734 0.74392778 0.6318469 4281542736
-1.1709092 0.75486362 0.63607055 4281542480
-1.1698534 0.75108665 0.63246554 4281608529
-1.173053 0.76422203 0.63525844 4281083985
-1.1751295 0.77390224 0.63150519 4280755795
-1.1656449 0.77648878 0.63546747 4281214799
-1.1777643 0.78469557 0.6339187 4281411410
-1.1671441 0.78297174 0.63519454 4281542737
-1.1804622 0.79579455 0.63616008 4281476684
-1.1793474 0.79158115 0.63343769 4281411152
-1.1825781 0.80517793 0.63464987 4281215312
-1.1852475 0.81572855 0.63894558 4281215565
-1.1751093 0.81753135 0.63318533 4281215568
-1.1873665 0.82471621 0.6394037 4281347151
-1.1768889 0.82511109 0.63342083 4281412688
-1.1907583 0.83938342 0.63878632 4281675856
-1.1801628 0.83822316 0.63786006 4281412944
-1.1791129 0.83446681 0.63427484 4281215566
-1.1915619 0.84338415 0.63610858 4281412943
-1.1813866 0.84455997 0.63260216 4281281616
-1.1949039 0.85730994 0.63803172 4281610062
-1.1836107 0.85391581 0.63345617 4281478480
-1.1967267 0.86542565 0.63657492 4281610066
-1.1857526 0.8633703 0.63214314 4281675346
-1.1979264 0.87178117 0.63073105 4281872472
-1.382792 0.42665389 0.64872402 4281084240
-0.68799019 0.42768088 0.6463117 4278784296
-1.3844532 0.43454498 0.64501458 4281150027
-0.68358606 0.43556499 0.64475209 4278914859
-1.3869267 0.44534078 0.64407778 4283126116
-0.6804862 0.44848293 0.64587873 4279242284
-0.67961019 0.44497424 0.64469087 4278980139
-1.3890263 0.45415175 0.64499348 4283523951
-0.6825096 0.4556731 0.64506304 4279833651
-1.3785335 0.46624893 0.64600456 4283524464
-0.68450904 0.46599519 0.64458507 4280490553
-1.3801208 0.47271088 0.64765036 4283656047
-1.3798032 0.47254243 0.64190376 4283983728
-0.70007944 0.47886127 0.64939541 4279706174
-0.69503766 0.47642365 0.6445902 4280098364
-0.68625313 0.47342047 0.64482909 4280293945
-0.7051214 0.48459044 0.64546853 4280361541
-0.74253076 0.49870256 0.64499009 4280623430
-0.73618114 0.49778274 0.64567161 4280558150
-0.72488028 0.49659252 0.64447612 4280754504
-0.71551514 0.49306685 0.64497185 4280885833
-0.70882779 0.49096859 0.64435399 4280755275
-1.0368685 0.50818121 0.64862233 4281347152
-1.010411 0.50956082 0.64756161 4281216594
-0.97529936 0.50861025 0.64883977 4281281359
-0.94116789 0.50778806 0.64851242 4281216340
-0.93273455 0.50726914 0.64668781 4281084754
-0.92436677 0.50698996 0.64506352 4281150546
-0.91699582 0.50651097 0.64375842 4281216083
-0.87386 0.50887161 0.64534044 4281018961
-0.86326343 0.50951123 0.64481831 4281018704
-0.85618776 0.50988728 0.64549184 4281018960
-0.84063745 0.50846761 0.64963895 4280953168
-0.8335011 0.50888985 0.64883584 4280953168
-0.8262924 0.50929558 0.64661747 4280821582
-0.81711376 0.50914735 0.64354062 4280821326
-0.79133499 0.50890374 0.6483897 4280689482
-0.7850126 0.50895834 0.64493924 4280951883
-0.77465737 0.50874698 0.64440262 4281083212
-0.76397061 0.50696725 0.64457542 4280885576
-0.75530761 0.50634074 0.6456033 4280886345
-0.7443248 0.50389159 0.64430159 4280820808
-1.1362629 0.51689482 0.64247203 4281150284
-1.1260388 0.51655126 0.64527607 4281084746
-1.1152798 0.51453507 0.64509916 4281150027
-1.1047434 0.5138309 0.64319587 4281346638
-1.0961614 0.51586306 0.6472404 4280691531
-1.0855508 0.5149098 0.64500678 4281281615
-1.0760393 0.51369214 0.64551401 4281346895
-1.0667113 0.51354271 0.64465922 4281477711
-1.0565569 0.51411688 0.64448863 4281346125
-1.0469557 0.51228148 0.64611924 4281346382
-1.0374141 0.51121259 0.64528662 4281412432
-1.023378 0.51187831 0.64518082 4281150287
-1.0132376 0.51239783 0.64449704 4281084751
-1.0015317 0.51169026 0.6449976 4281151057
-0.99332798 0.51194417 0.64419222 4281150801
-0.98401833 0.51175153 0.64392877 4281150544
-0.97582626 0.51153755 0.6456185 4281347152
-0.96755862 0.51184058 0.64325464 4281347409
-0.95388663 0.51255691 0.64557314 4281216082
-0.94192469 0.51182389 0.64469755 4281282387
-0.93344784 0.51109219 0.64300036 4281281875
-0.92521858 0.51155525 0.64066005 4281281873
-0.90141183 0.51009649 0.64432615 4281084754
-0.89422506 0.51028955 0.64358401 4281018962
-0.88648134 0.51177293 0.64635575 4281018962
-0.87909979 0.51128036 0.64489514 4281084755
-0.84528351 0.51086956 0.64484996 4280887631
-0.83390647 0.51153618 0.64445734 4280953424
-0.82677412 0.51197147 0.64367294 4280953168
-0.81355333 0.51069057 0.64431101 4280821583
-0.8059395 0.51036382 0.64574462 4281084242
-0.79528052 0.51119477 0.64453173 4281018191
-0.78548181 0.51156485 0.64207101 4280886347
-0.77091718 0.51028579 0.64466625 4281083723
-1.1373127 0.52178806 0.64057475 4281084494
-1.1279488 0.52417755 0.64798284 4281216590
-1.1381801 0.56842035 0.64612055 4283918447
-1.1507335 0.57805276 0.64666271 4282075480
-1.140361 0.57820278 0.64402676 4283983988
-1.1393369 0.57363439 0.64489186 4283918448
-1.1283978 0.57182151 0.64001119 4283918190
-1.1420667 0.58567959 0.64323145 4280100924
-1.1442431 0.59463829 0.64501703 4279704123
-1.1465694 0.60392296 0.64832675 4280426308
-1.1364968 0.60614276 0.64191234 4280098629
-1.1491462 0.61506557 0.64785773 4280819782
-1.1383042 0.61367857 0.64293349 4280427079
-1.1512498 0.62423199 0.6471355 4281016649
-1.1410191 0.62569904 0.64108914 4280623689
-1.1398885 0.62080997 0.64129496 4280426824
-1.1533589 0.63361716 0.6454789 4280951113
-1.1421498 0.63058805 0.64088339 4280557896
-1.1556638 0.64324987 0.64667141 4280885321
-1.1451648 0.6436255 0.64033461 4280558411
-1.1574055 0.65049922 0.64771193 4280885065
-1.1476105 0.65350157 0.64326465 4280557384
-1.1608185 0.66572738 0.64482814 4281017160
-1.1522242 0.6650753 0.64739799 4281147721
-1.1493028 0.66011828 0.64633197 4280754762
-1.1618599 0.67011344 0.64520419 4281279048
-1.153313 0.67736036 0.64608419 4281409864
-1.1553327 0.68619323 0.64523435 4281017417
-1.1569324 0.69276094 0.64663082 4281148489
-1.1476965 0.69800448 0.64293033 4281148489
-1.1604166 0.70747697 0.64768434 4281214282
-1.1547323 0.70557582 0.6456039 4281541705
-1.1489427 0.70335782 0.64287132 4281344841
-1.1735065 0.71941984 0.64817506 4281608527
-1.1622769 0.71602112 0.64493483 4281148491
-1.1509283 0.71180516 0.64318126 4281607245
-1.1749293 0.72592515 0.64621907 4281542736
-1.1640506 0.72441721 0.64111614 4281345614
-1.1769168 0.73416746 0.64755428 4281476688
-1.1670156 0.73671341 0.64310789 4281476943
-1.170023 0.74831706 0.64931101 4281214802
-1.1689674 0.74454004 0.645706 4281411153
-1.1713457 0.75473779 0.64569497 4281280338
-1.173607 0.76451588 0.6452834 4281280337
-1.1758682 0.77429402 0.64487189 4281542224
-1.1892285 0.78670192 0.64870715 4281607505
-1.1780121 0.78365242 0.64405972 4281804367
-1.1911231 0.79489499 0.64836228 4281411154
-1.1806751 0.7954309 0.64230925 4281739343
-1.1795446 0.79054189 0.64251506 4281870159
-1.1933039 0.80467749 0.64626843 4281214800
-1.1823249 0.80274004 0.64116514 4281542989
-1.1954345 0.8137145 0.64672911 4281018450
-1.1853539 0.81554669 0.64202017 4281149519
-1.1971861 0.82111293 0.6472587 4281281365
-1.1883024 0.82759571 0.64485878 4281346643
-1.1907508 0.83794957 0.64553821 4281674323
-1.1896201 0.83306056 0.64574403 4281477458
-1.2034348 0.84742939 0.64951515 4281740113
-1.1925179 0.84567839 0.6447947 4281608529
-1.2048887 0.85395104 0.64811921 4281544016
-1.1946348 0.85516548 0.64280611 4281477969
-1.1962191 0.86229694 0.64116764 4281544531
-1.3831115 0.42682338 0.65450644 4281084497
-0.68580747 0.42721939 0.65440965 4279179307
-1.3848505 0.43434334 0.65418988 4281019211
-1.3724408 0.43749261 0.6587224 4281150543
-0.68394238 0.4350853 0.65442181 4278980651
-1.3874592 0.44562328 0.65371507 4282995558
-1.3741691 0.44496608 0.65840781 4281546577
-0.68175751 0.44696969 0.65626436 4279177260
-0.67974335 0.44312128 0.65636867 4279045932
-1.3890916 0.45308676 0.65147108 4283458416
-1.3764925 0.45521402 0.65701747 4283457903
-0.68259627 0.45562679 0.65503848 4279571505
-1.3784412 0.46444356 0.65279317 4283262577
-1.3671062 0.46798554 0.65640092 4283394163
-0.68471658 0.4646996 0.65511411 4279703352
-1.3804383 0.47287932 0.65339702 4283197551
-1.3688245 0.47541612 0.65608811 4283197296
-1.3558369 0.47648561 0.65870857 4283721586
-0.70044082 0.47905293 0.65593487 4279770940
-0.69489247 0.47668886 0.65464514 4280032828
-0.68686461 0.473818 0.65554273 4280162874
-0.71483541 0.48819187 0.65442061 4280820293
-0.70623523 0.48386753 0.65499502 4280230466
-0.74282736 0.49885988 0.65035731 4280230212
-0.73416013 0.49770135 0.65527803 4280361542
-0.72415978 0.49531373 0.6555723 4280492357
-0.71587718 0.49280745 0.65369815 4280689222
-1.0464001 0.50785267 0.65597957 4281346895
-1.0372225 0.50836909 0.65503073 4281215566
-1.0201789 0.50927448 0.65959525 4281085263
-1.0107129 0.5090456 0.65627444 4281085264
-1.0010767 0.50741833 0.6561811 4281018957
-0.99296141 0.50773799 0.65688616 4281084749
-0.98382974 0.50845903 0.65589565 4281215565
-0.97564131 0.50879163 0.65502816 4281084493
-0.96745962 0.50915295 0.65415949 4280953422
-0.94358504 0.50787258 0.65556383 4280888145
-0.93300933 0.50679982 0.6546244 4280887632
-0.92469341 0.50613481 0.65592867 4280953169
-0.91251618 0.50858903 0.65445942 4281084754
-0.87412989 0.50915825 0.65438378 4281281361
-0.86382324 0.50980824 0.65494865 4281281360
-0.85601544 0.50733012 0.65425473 4281150544
-0.84498972 0.50838435 0.65500098 4281150032
-0.8338151 0.50905645 0.65451831 4281084497
-0.82676136 0.50954437 0.65510267 4281018705
-0.81757629 0.50879037 0.65481257 4280953169
-0.79517078 0.50846821 0.65540075 4280821582
