# .PCD v0.7 - Point Cloud Data file format
VERSION 0.7
FIELDS x y z rgba
SIZE 4 4 4 4
TYPE F F F U
COUNT 1 1 1 1
WIDTH 1083
HEIGHT 1
VIEWPOINT 0 0 0 1 0 0 0
POINTS 1083
DATA ascii
-1.1418757 0.50189358 0.1876398 4283394669
-1.1363617 0.50508749 0.18443215 4284183156
-1.1339304 0.51361293 0.18491197 4284183926
-1.1290343 0.51773298 0.18160272 4284578683
-1.1336544 0.52227992 0.18573473 4283921525
-1.1277826 0.52662855 0.18388598 4284577656
-1.1305079 0.53071952 0.18711756 4284971386
-1.1273676 0.53429985 0.18354706 4285233017
-1.124036 0.54517156 0.18316646 4285299323
-1.1158413 0.54586971 0.18978128 4285101431
-1.1236105 0.5535475 0.181393 4285233788
-1.1177231 0.55675244 0.18488309 4284512381
-1.1191269 0.56280273 0.18262099 4284971393
-1.1146873 0.57255292 0.18092461 4285889924
-1.1097629 0.57745034 0.18186957 4285889669
-1.1008455 0.5867734 0.18351263 4285562242
-1.1035196 0.59511638 0.18134525 4285169276
-1.095354 0.59758759 0.18503925 4284776064
-1.0866287 0.5949527 0.18968299 4284578948
-1.1031005 0.6040895 0.18270829 4285561212
-1.0933409 0.60523319 0.18788798 4284972164
-1.1047529 0.61617309 0.18288358 4285430657
-1.0967275 0.61577523 0.18692437 4285101699
-1.1041473 0.62616861 0.18208276 4284840829
-1.097666 0.62583637 0.18736419 4284116086
-1.1025412 0.634395 0.18188818 4284971648
-1.0975357 0.63568389 0.1869224 4284509050
-1.0964392 0.64552277 0.18440253 4285298815
-0.71517754 0.64493424 0.18897873 4282137147
-0.7044785 0.64963585 0.18967001 4278848524
-1.0911168 0.65198678 0.18708912 4284643713
-1.0862353 0.6575464 0.18587872 4285691001
-0.72102451 0.65675545 0.18856137 4284839545
-0.71603906 0.65251386 0.18895927 4282602324
-1.0847529 0.66419643 0.18611057 4283715670
-0.72128552 0.66264194 0.18846591 4285961109
-0.71867275 0.66215283 0.18719138 4287604651
-1.0853337 0.67868733 0.18990287 4280095520
-1.0752107 0.67356896 0.18912095 4280890424
-0.70469409 0.67899281 0.18708344 4288923857
-0.70520335 0.68522638 0.18677227 4280631376
-1.0852618 0.69308376 0.18894604 4278915873
-1.0748702 0.69643199 0.18917961 4278983208
-1.0658495 0.69861645 0.18843386 4279114547
-1.0362111 0.69732189 0.18815726 4279178805
-1.0295563 0.69649732 0.18895701 4279441721
-0.83095425 0.69985098 0.18833035 4283399058
-0.8249293 0.69960237 0.18465166 4284054930
-0.81463325 0.69875562 0.1842626 4283530640
-0.80427337 0.69821471 0.18542878 4283465359
-0.79464215 0.69872862 0.18538456 4283662226
-0.78593582 0.6987862 0.18148308 4283334548
-0.77712172 0.69824511 0.18460318 4283202962
-0.7634033 0.69837844 0.1845202 4283595151
-0.75388849 0.69845098 0.18455896 4283594378
-0.74568427 0.69830465 0.18533152 4283658888
-0.73567212 0.69832081 0.18594344 4283987084
-0.72520244 0.69711846 0.1868393 4283267470
-0.71474081 0.69596094 0.18849079 4282739066
-0.70737886 0.6927321 0.18793781 4280692035
-1.101033 0.70864737 0.18998027 4278720050
-1.0941862 0.70565522 0.18868186 4278259494
-1.0819759 0.70637417 0.18635464 4278987582
-1.0740292 0.70483303 0.18597119 4278922815
-1.0651356 0.7067132 0.18500571 4280699742
-1.0542759 0.70580739 0.18691054 4279711052
-1.0447637 0.70558488 0.1847977 4281816427
-1.0374104 0.70229179 0.18635841 4280039249
-1.0261579 0.70234317 0.1850535 4280635496
-1.0157279 0.70411432 0.18541633 4281358445
-1.0036297 0.70632535 0.18597975 4282280829
-0.99368489 0.70547676 0.18686834 4282280062
-0.98400539 0.70570648 0.18502021 4282544519
-0.97497404 0.70496911 0.1852468 4282479497
-0.96383005 0.70447743 0.18505797 4282873227
-0.95448017 0.70276564 0.18533778 4283331980
-0.94486254 0.70329833 0.18439254 4284118157
-0.9348852 0.70383769 0.18432951 4284445835
-0.92525017 0.703834 0.18522039 4283723909
-0.91464251 0.70405698 0.18485203 4283723650
-0.90544647 0.70368242 0.18494058 4284117896
-0.89413565 0.70308918 0.18561901 4283922316
-0.88876522 0.70148063 0.18516871 4283266442
-0.87405795 0.70282543 0.1863049 4283792015
-0.86410064 0.70283204 0.18468265 4284186260
-0.85387164 0.70243704 0.18577938 4283596436
-0.84581387 0.70151079 0.18607427 4283727251
-0.83511484 0.70202339 0.18517238 4283792787
-0.82830596 0.70178187 0.18361622 4284383382
-0.81610036 0.70070934 0.1897814 4283135625
-0.78247434 0.70029652 0.18729982 4283268754
-0.76488018 0.70035273 0.18928756 4283596692
-1.104059 0.71521562 0.18534265 4280501335
-1.0958529 0.71159476 0.18352376 4281095014
-1.0848221 0.7108233 0.18349971 4280831841
-1.0743096 0.71275604 0.18100008 4282610560
-1.0675795 0.71103621 0.18230549 4283135621
-1.0556948 0.71034282 0.18156904 4283527298
-1.1071788 0.72441405 0.18552743 4284184971
-1.1034793 0.73464662 0.18799119 4284842136
-1.0989765 0.73819035 0.18686064 4288986059
-1.106409 0.74011075 0.18456078 4289642704
-1.0980839 0.74698889 0.18861318 4286878378
-1.1021444 0.75495833 0.18848477 4285038487
-1.0991668 0.75115055 0.18720841 4289706702
-1.1128713 0.76542592 0.18644492 4283592325
-1.1131735 0.77560675 0.18704288 4285230471
-1.1165848 0.78575796 0.18637401 4283850873
-1.1221387 0.79525411 0.18714359 4280297539
-1.1183026 0.79362315 0.18329512 4288258736
-1.120487 0.80043823 0.18152468 4289709260
-1.1175858 0.80529356 0.18628325 4282208613
-1.1235077 0.81597626 0.18514465 4282534498
-1.1196194 0.81337118 0.18935221 4279439922
-1.1254178 0.82501388 0.18568285 4281548634
-1.1311911 0.83859158 0.18729766 4279833394
-1.1276991 0.83366859 0.18542989 4280432469
-1.1333636 0.84444809 0.1863777 4280556092
-1.5910875 0.29808447 0.19974713 4284510580
-1.5869027 0.29593268 0.19579975 4283851626
-1.5931021 0.30546051 0.19738035 4283854704
-1.5882157 0.30330014 0.19253387 4283919985
-1.5952989 0.31360266 0.19473261 4283854191
-1.6013423 0.3202644 0.19804102 4283591280
-1.5971187 0.32126272 0.19192331 4284181877
-1.1300025 0.47513273 0.19034229 4281552219
-0.73202932 0.47433075 0.19844663 4286354837
-1.1633465 0.48896316 0.19048983 4279842362
-1.1507593 0.48865676 0.1974126 4284709253
-1.1466767 0.48771876 0.19277976 4280698187
-1.1370497 0.48512253 0.19270487 4281749333
-1.1234013 0.48656058 0.19532025 4282405728
-1.0241212 0.4881162 0.19158532 4279242254
-1.0118356 0.4888339 0.19467717 4279241489
-1.0044596 0.48758581 0.19542085 4280030240
-0.99755722 0.4880695 0.19619769 4279897627
-0.94942993 0.4887656 0.19898334 4279373850
-0.73097229 0.48124772 0.19948837 4286288021
-1.1550138 0.49392188 0.1931767 4281223757
-1.1483498 0.49318478 0.19125821 4279648065
-1.1357943 0.49042189 0.19810995 4280499786
-1.128547 0.49071631 0.19915783 4281287247
-1.1195593 0.49148616 0.19940685 4281944918
-1.027284 0.49531007 0.19964676 4282468174
-1.0154004 0.49273911 0.1966452 4279110158
-1.00393 0.49173704 0.1984158 4279504666
-0.98056644 0.49296227 0.19923849 4280093721
-0.97454172 0.49367076 0.19761263 4279634961
-0.9666971 0.49225986 0.19947931 4279241747
-0.95607537 0.49162266 0.19856845 4278651151
-1.1431201 0.50363493 0.19230822 4279713344
-1.1388767 0.5077194 0.19044229 4282147685
-1.0606734 0.5013392 0.19980809 4285363840
-1.141341 0.51788414 0.19736856 4283854445
-1.1367767 0.51537257 0.19317409 4280831309
-1.1429342 0.52176231 0.19681264 4284248432
-1.1368952 0.5252468 0.19374107 4281223497
-1.1280948 0.53338677 0.19280148 4282012499
-1.1167071 0.54105389 0.19413896 4282868323
-1.1109394 0.550879 0.19067976 4284971386
-1.0713458 0.57962292 0.19971146 4283986299
-1.0761071 0.5872364 0.1954311 4284182398
-1.0851531 0.59668982 0.19296549 4283394168
-1.0769234 0.59440857 0.19594285 4283194481
-1.090083 0.60085911 0.1901616 4284119171
-1.084305 0.60433775 0.19537358 4280761426
-1.0904253 0.61738008 0.19007394 4284052356
-1.085423 0.61481273 0.19465871 4280236369
-1.0926137 0.62541866 0.19189784 4281746263
-1.0842029 0.62464607 0.196072 4280101957
-0.72305602 0.62709433 0.19702344 4285891974
-0.71548116 0.62997121 0.19238062 4285495158
-1.0850259 0.6350925 0.19648989 4280493891
-0.72277069 0.63545805 0.19680277 4285956997
-0.71519768 0.63575101 0.19309941 4285430394
-0.70878124 0.63705504 0.19132966 4278191876
-1.0908012 0.64619076 0.19058317 4283193967
-1.0857199 0.64511019 0.19583076 4280099647
-0.72130686 0.64397931 0.19884795 4284908159
-0.717237 0.64453971 0.19391692 4285233274
-0.70536661 0.64560497 0.1912588 4278914573
-1.0854328 0.65473551 0.19488207 4281020747
-0.72180748 0.65529245 0.19552961 4285695366
-0.71781069 0.6523031 0.19270919 4285365632
-1.085116 0.66489208 0.19493572 4281152845
-0.72191751 0.66201603 0.19625798 4285433219
-0.71750212 0.6669876 0.19584246 4285235841
-1.0910857 0.67761308 0.19804239 4280294716
-1.0876206 0.67495358 0.19536452 4280689981
-1.0782372 0.67543125 0.19176972 4282530377
-1.0445819 0.67884839 0.19373301 4280687650
-0.99277735 0.67923021 0.19551884 4279900704
-0.86791056 0.67169851 0.19844609 4279905582
-0.71173495 0.67217743 0.19753377 4285235072
-0.70788038 0.67626387 0.19446376 4285761678
-1.0908829 0.68836498 0.1964279 4279965747
-1.085776 0.6857391 0.19455223 4279702827
-1.0740913 0.68413335 0.19115782 4279571999
-1.0640916 0.68845063 0.19300942 4280098344
-1.0504475 0.68786311 0.19522849 4278327840
-1.0438591 0.68638778 0.19434576 4279508260
-1.0344993 0.68583721 0.19367966 4280688171
-1.0252196 0.68450981 0.19395497 4280425255
-1.0141888 0.6868397 0.19329339 4280295471
-1.0023023 0.68611407 0.19434142 4279771436
-0.99733323 0.68706101 0.19612251 4279770921
-0.98366022 0.68588036 0.19693859 4279705384
-0.97329414 0.68651211 0.1963857 4279443503
-0.96424019 0.68471551 0.19518773 4279246889
-0.9525578 0.68805546 0.19596899 4279508273
-0.94385952 0.68648833 0.19816391 4279968558
-0.93603247 0.686405 0.19754183 4279771956
-0.92356217 0.68737733 0.19963597 4279772471
-0.91807389 0.68787414 0.19928557 4280231481
-0.70670098 0.6851747 0.19530366 4280041802
-1.0932226 0.69537693 0.19559048 4280293423
-1.0871811 0.69536656 0.19164915 4279374886
-1.0775392 0.69174629 0.19047952 4278916638
-1.0651796 0.69184542 0.19212753 4279441441
-1.0526057 0.69459665 0.19347924 4279114536
-1.0447814 0.69484878 0.19204673 4279311406
-1.0357749 0.69519043 0.19123575 4279834930
-1.0252985 0.6921652 0.19226624 4279900209
-1.0137664 0.69563156 0.19212677 4279115578
-1.0034685 0.69587833 0.19280335 4279180345
-0.99539137 0.69503272 0.19266598 4279377467
-0.98461056 0.69488335 0.1938695 4279508794
-0.97460675 0.69552642 0.19401683 4279443261
-0.96368927 0.69518209 0.19349028 4278592576
-0.95431602 0.69441879 0.19395307 4279314244
-0.94567025 0.69560629 0.19365573 4279446602
-0.93550313 0.69581258 0.19523433 4279250247
-0.92489016 0.69543546 0.19663066 4278987073
-0.91553897 0.69605166 0.19639666 4279382344
-0.90666962 0.69607937 0.19776846 4279445569
-0.8963778 0.69529009 0.1986798 4279117119
-0.88597935 0.6974836 0.19850498 4278331972
-0.87701535 0.69796866 0.19956455 4278203212
-0.86085212 0.69962019 0.19879363 4278798429
-0.85499436 0.69900656 0.19669692 4281229945
-0.84560144 0.69720805 0.19769816 4280243311
-0.83418471 0.69798833 0.19610262 4281754749
-0.82681996 0.6982348 0.1950701 4282084740
-0.81547511 0.69875854 0.19028819 4283201420
-0.80517387 0.69920039 0.19546257 4282938509
-0.79424483 0.69867986 0.19885743 4282545292
-0.78468609 0.69849831 0.19606858 4283266187
-0.77503449 0.69907618 0.19743983 4283593611
-0.76176065 0.69956946 0.1981481 4283398290
-0.75473022 0.69937009 0.19510114 4283660174
-0.74335992 0.69866079 0.19495453 4283331980
-0.73423594 0.69825763 0.19531302 4283397258
-0.72437251 0.69752294 0.19557169 4283136140
-0.71393847 0.69493121 0.1955878 4281291874
-0.70825678 0.69162375 0.19436212 4279380794
-1.1012658 0.70588857 0.19360812 4279441460
-1.0969951 0.70392478 0.19542004 4279966004
-1.0819803 0.70088559 0.19005452 4278786346
-1.047685 0.70082366 0.19176887 4279639091
-1.004316 0.70278978 0.19100936 4278594631
-0.99435413 0.70244777 0.19075063 4279381837
-0.98268843 0.70147347 0.19107419 4279054928
-0.97489393 0.70208031 0.19061783 4279847012
-0.96504438 0.70140976 0.19072498 4279782760
-0.9552266 0.70077175 0.19085138 4280309873
-0.9483856 0.70049143 0.19104479 4280768113
-0.93316013 0.70199865 0.1909917 4283003276
-0.92375171 0.70190543 0.19292636 4281294454
-0.9169575 0.70172179 0.19135013 4282741383
-0.90441453 0.70201141 0.19369254 4282083967
-0.89607322 0.70133609 0.19343334 4281819512
-0.8837229 0.70220196 0.19477336 4281822597
-0.87411523 0.70260245 0.19505998 4281625989
-0.86331409 0.70273995 0.19594574 4282150790
-0.85582477 0.70208955 0.193003 4284184977
-0.84428596 0.70057011 0.19326849 4283464080
-0.83552212 0.70187044 0.19286074 4283463823
-0.8145079 0.70038259 0.19579272 4282807435
-0.80819237 0.70006478 0.19413954 4283463311
-0.7942912 0.70062608 0.19643064 4283135373
-0.78756428 0.70035905 0.19382042 4283726222
-0.77196151 0.70104283 0.1926585 4283267985
-0.76508635 0.70059526 0.19424416 4283333265
-0.75924009 0.70140725 0.19366138 4283398286
-0.74362552 0.70033306 0.19719729 4283265929
-0.7396903 0.70023161 0.19572188 4283463565
-1.102425 0.71472651 0.19430256 4279575361
-1.0988026 0.71481335 0.19707491 4279508541
-1.1038314 0.72531956 0.193546 4279116865
-1.0995474 0.72267759 0.19803745 4279442750
-1.1025674 0.73553526 0.19504273 4279770943
-1.0982792 0.73115218 0.19952387 4280754756
-1.1024992 0.74504149 0.19561696 4280295232
-1.0988818 0.7436046 0.19191971 4279049790
-1.1104048 0.7595852 0.19602133 4280558658
-1.1053605 0.75487512 0.19429217 4279902272
-1.1123043 0.76577133 0.19504225 4280623683
-1.108604 0.76304513 0.19313565 4279310649
-1.1144451 0.77417058 0.19435582 4280359998
-1.1210184 0.78799969 0.19058171 4279836223
-1.1156956 0.78441936 0.19550543 4280229439
-1.1203632 0.79847401 0.19151238 4280558401
-1.1171144 0.79512501 0.19636631 4280557890
-1.1216561 0.80494481 0.19676691 4280229952
-1.1182635 0.80499512 0.1932414 4280164415
-1.1226255 0.81488436 0.19317245 4280557888
-1.1180452 0.81452972 0.1971332 4280557886
-1.1251001 0.8249101 0.19394763 4280361280
-1.1190746 0.82642442 0.19927995 4281015872
-1.1243162 0.83607602 0.19528551 4280492864
-1.1241148 0.8457796 0.19527303 4280034367
-1.1328442 0.85207903 0.19094187 4280558405
-1.1270036 0.85427773 0.19686635 4280427842
-1.1305783 0.86118984 0.19953874 4280624196
-1.5901514 0.28862125 0.20490935 4281085757
-1.5880461 0.28859538 0.20221221 4280428597
-1.5938632 0.29496795 0.20542371 4283851880
-1.5857571 0.29255062 0.20542426 4281481796
-1.600445 0.30765107 0.20537353 4283394923
-1.5970362 0.3035585 0.20373285 4283723374
-1.601745 0.31606859 0.20138425 4283657069
-1.5941133 0.31516096 0.20686394 4283722860
-1.5957179 0.32170865 0.20746775 4283658610
-0.73071206 0.47533238 0.20313424 4285828238
-0.72438312 0.47431147 0.20460398 4285827982
-0.71956098 0.47558263 0.20976892 4284841867
-1.0026577 0.48966429 0.20170052 4281414214
-0.95316482 0.48881143 0.20376812 4281282883
-0.94277203 0.48815009 0.20405117 4281678157
-0.9379524 0.48829126 0.20215467 4280490283
-0.86680925 0.48762849 0.2079502 4281095534
-0.85249519 0.48876834 0.20990798 4280173666
-0.84270781 0.48688841 0.2085558 4282018175
-0.83672607 0.48414233 0.20857504 4280965230
-0.82101172 0.48813021 0.20857541 4285897129
-0.81483173 0.48824394 0.20759083 4286029741
-0.77501267 0.484772 0.20599131 4279707192
-0.75869572 0.48837227 0.20925783 4281617502
-0.73059922 0.48460791 0.20380618 4285368974
-0.72852933 0.48429298 0.20588808 4285236617
-1.1031175 0.49865526 0.20515332 4281878102
-1.0614924 0.49898505 0.20244861 4282604907
-1.0599126 0.49896565 0.20042469 4284510333
-1.0450807 0.49964753 0.20378798 4281754226
-1.0362879 0.49847937 0.20618121 4280896354
-1.0243351 0.49674574 0.20524806 4280434510
-1.0144553 0.49486864 0.20474447 4280299070
-1.0064498 0.49354124 0.20398067 4280168254
-0.99389827 0.49595726 0.20646927 4280563015
-0.98605049 0.49398437 0.2054252 4281151045
-0.97633618 0.49330136 0.20532291 4281281604
-0.96427542 0.49375802 0.20513664 4281150528
-0.95461816 0.49224392 0.20480263 4280560186
-0.94311446 0.49057341 0.20727432 4281677645
-0.93625778 0.49080026 0.20489986 4280558391
-0.92477083 0.49144906 0.2059793 4280887613
-0.91651928 0.49198478 0.20733492 4281086533
-0.90635729 0.49446613 0.20844799 4281942099
-0.89648902 0.4951041 0.20853284 4283722878
-0.88501126 0.49576017 0.20888393 4283198851
-0.87309104 0.49405912 0.20819147 4284056982
-0.86889106 0.49405509 0.209839 4281952382
-0.7713061 0.49602351 0.20977703 4280821818
-0.7246092 0.49509358 0.20785289 4284842371
-1.1155469 0.50200206 0.20833641 4281485148
-1.1075075 0.50232905 0.20834109 4280892239
-1.0922885 0.50305438 0.20941086 4281942614
-1.0754997 0.50276643 0.20737372 4281811029
-1.0635446 0.5025298 0.20976923 4281283148
-1.0529748 0.50456905 0.20712389 4281616731
-1.0453051 0.50141233 0.20642002 4281354848
-1.0350016 0.50005883 0.2064013 4280240735
-1.0264007 0.500597 0.20553973 4282675840
-0.72238737 0.50177103 0.20990734 4285236099
-1.1395195 0.52838647 0.20030676 4286682518
-1.1166785 0.54133707 0.20450155 4284970616
-1.0819829 0.55853891 0.20820114 4282402118
-1.0803865 0.56086493 0.20457742 4282077265
-1.0765138 0.56579149 0.20568192 4282930008
-1.0733037 0.57533133 0.20524192 4281153866
-1.0698482 0.57495052 0.20092525 4284380281
-1.0726346 0.58688813 0.20707344 4279376183
-1.0681344 0.58509517 0.20247796 4281680985
-1.0733659 0.5946818 0.20442589 4279967808
-1.0751727 0.60407561 0.20359188 4279441977
-1.0691849 0.60654259 0.20881292 4279770685
-1.0747422 0.61508524 0.20552193 4279770427
-1.0816233 0.62494141 0.20187701 4279967035
-1.0777915 0.6245445 0.20567569 4279836477
-0.74017709 0.62145692 0.20524219 4286484123
-0.73454183 0.62254614 0.20536247 4286615959
-0.72628796 0.62416613 0.20316134 4286154629
-1.0813097 0.63503128 0.20501958 4280623424
-1.0784241 0.63488901 0.20668994 4280426558
-0.73096317 0.63129526 0.20439102 4286680976
-0.72609276 0.6359573 0.20391653 4286088839
-1.0828204 0.64491868 0.20442599 4280622910
-1.0796649 0.64198107 0.2072989 4280425531
-0.72444957 0.64479101 0.20509715 4285432196
-1.082898 0.65579563 0.20532155 4280753473
-0.8016603 0.65862012 0.20655116 4288717210
-0.72352529 0.65465117 0.20569858 4285825157
-0.71963745 0.65298045 0.20166898 4285891713
-1.0856096 0.66558444 0.20496072 4280164417
-0.80447066 0.66566414 0.20745115 4282798146
-0.79497731 0.6641711 0.20567146 4281480749
-0.78668135 0.66622508 0.20506549 4281151536
-0.72372508 0.66437709 0.20588787 4285629319
-0.71883547 0.66776067 0.20127732 4286155146
-1.0912877 0.67618734 0.20514591 4280819522
-1.0878639 0.67372435 0.20533085 4280491842
-0.91169089 0.67568874 0.20278707 4281080598
-0.90928012 0.67802978 0.20163319 4280951843
-0.8670364 0.67623055 0.20132901 4280691762
-0.80339164 0.67106217 0.20746981 4280891953
-0.79276782 0.6739561 0.20770963 4280891707
-0.78563094 0.67653263 0.20736402 4280891721
-0.77421933 0.67506498 0.20717019 4280955720
-0.76602715 0.67529297 0.20763284 4280628037
-0.75549024 0.67765063 0.2095225 4279513419
-0.72229165 0.67622489 0.20886214 4285428608
-0.71504796 0.67571867 0.20630039 4285629577
-0.70911503 0.67702419 0.20192514 4285301378
-1.0925454 0.68975115 0.20058006 4280294203
-1.0870589 0.6853857 0.20476511 4280556351
-0.98723018 0.68807697 0.20006306 4280100133
-0.91198444 0.68218595 0.20232266 4280624425
-0.90242791 0.68647748 0.20182152 4280100401
-0.89646077 0.68533939 0.20136552 4279903536
-0.88757807 0.68777955 0.20150831 4279641397
-0.87917948 0.6873045 0.20247205 4280756792
-0.86562836 0.68765843 0.20417736 4280427573
-0.85716665 0.68564171 0.20344992 4280099897
-0.84310687 0.68562698 0.20474742 4280035644
-0.83437932 0.68691152 0.20347252 4280166979
-0.82941568 0.68777794 0.20153245 4278857286
-0.8102693 0.6885128 0.20459244 4279711566
-0.80580652 0.6880306 0.20534059 4279252297
-0.79123974 0.68612254 0.20814116 4280236872
-0.78399926 0.68568873 0.20753068 4280500303
-0.77540392 0.68532503 0.20703392 4280827988
-0.76527494 0.68549472 0.20803368 4281221719
-0.75521564 0.68575197 0.20909517 4281418321
-0.74332404 0.68587506 0.20962837 4280174423
-0.73577076 0.68794101 0.20877413 4279977559
-0.72517973 0.6847772 0.20824195 4280892238
-0.71374643 0.68589121 0.20538214 4280430909
-0.70878637 0.68329114 0.20191678 4280565057
-1.0932201 0.69766092 0.20318669 4280622651
-1.08786 0.69419855 0.20654881 4280491839
-0.90601373 0.69110775 0.20097497 4280099127
-0.89822465 0.69239837 0.20065379 4279771962
-0.88383615 0.69311106 0.20103805 4279052351
-0.87320989 0.69270909 0.20172802 4279314751
-0.86219692 0.69591784 0.20223488 4278856514
-0.8545965 0.69516647 0.20179419 4278594113
-0.84510142 0.6934979 0.20290418 4278789954
-0.83678085 0.69175082 0.20305964 4278987068
-0.82699424 0.69333762 0.20172887 4278661189
-0.81620204 0.69537747 0.20257844 4278991442
-0.80565172 0.69553894 0.2033235 4279713883
-0.79465455 0.69529492 0.20342891 4279651428
-0.78587162 0.69367492 0.2039534 4280110436
-0.77501321 0.69452488 0.20290548 4281096560
-0.7634092 0.69566703 0.20466521 4281096815
-0.75434309 0.69610143 0.20494077 4281622904
-0.74455577 0.69495726 0.20544125 4281295737
-0.73472095 0.69515771 0.20486428 4281297022
-0.7254951 0.69431674 0.20387535 4281952125
-0.71589798 0.69261932 0.20264557 4281095267
-1.100733 0.70582104 0.20032112 4280688703
-1.0946091 0.70535547 0.20597649 4280754496
-1.0892056 0.70049393 0.20845927 4280427330
-0.8678847 0.70008171 0.2004901 4278203211
-1.0964028 0.71513736 0.2056769 4280623938
-1.1007991 0.72609198 0.20617867 4280688965
-1.0976037 0.72422451 0.2039945 4280099652
-1.1024363 0.73483449 0.20366633 4280624195
-1.0993601 0.73190612 0.20629363 4280753988
-1.1030332 0.74607652 0.20384564 4280427844
-1.0990784 0.74462152 0.20913951 4280755272
-1.10447 0.75507903 0.20519152 4280361538
-1.1109961 0.76560259 0.20597151 4280820033
-1.1079452 0.76411569 0.20473576 4280820290
-1.1122141 0.77487671 0.20571271 4280426817
-1.109094 0.7743144 0.20206828 4280493119
-1.1135728 0.7851308 0.20268135 4280099135
-1.1083388 0.78371435 0.20830019 4280033599
-1.1131468 0.79572874 0.20488337 4280361024
-1.1089084 0.79378235 0.20814207 4280295744
-1.1154811 0.80496764 0.20577857 4280426304
-1.1210312 0.81865329 0.20703304 4280688961
-1.1175501 0.81513864 0.20491026 4280623167
-1.1233448 0.82617992 0.2049503 4280950847
-1.1185569 0.82250917 0.20477772 4280753982
-1.1256441 0.83470207 0.20450148 4280688958
-1.1303854 0.84676552 0.20899841 4281214274
-1.1259251 0.84436876 0.20486064 4280492862
-1.132822 0.85559654 0.20619652 4281017923
-1.1285295 0.85295522 0.20243962 4280690242
-1.1358657 0.86188871 0.20588575 4280821573
-0.74467015 0.27873632 0.21930516 4286812814
-1.5964675 0.28869879 0.21300083 4282863191
-0.74575001 0.28459594 0.21675375 4286484621
-1.6016921 0.29191354 0.21757337 4283982695
-1.5964454 0.2960687 0.21389566 4283917673
-1.5845485 0.29336852 0.21214063 4282402385
-0.74480355 0.29458487 0.21627802 4286549900
-1.5940189 0.3066462 0.21541469 4283591789
-1.5975015 0.31507152 0.21423447 4283460973
-1.5962691 0.32223108 0.21371029 4283658354
-0.6512354 0.46626312 0.21972853 4287474360
-0.72737277 0.47912139 0.21039893 4284710275
-0.71817696 0.47993571 0.21211471 4285040012
-0.65579027 0.4753184 0.21950674 4287080378
-0.8539021 0.48878559 0.21171039 4279904332
-0.84404165 0.48878244 0.21356057 4280036946
-0.83914983 0.4873811 0.21305028 4280761180
-0.82515317 0.48812234 0.21156698 4280635496
-0.81419164 0.48874134 0.21313789 4280962408
-0.80525333 0.48833644 0.21498659 4279713630
-0.79691035 0.48948902 0.21365194 4281753464
-0.7754662 0.48698565 0.21181028 4285364358
-0.76523805 0.48873076 0.2162752 4283061608
-0.75878 0.48893747 0.21369286 4279377972
-0.72312748 0.48824888 0.21431451 4284448388
-0.71532607 0.48530319 0.21620111 4284119940
-0.70594949 0.48336226 0.21648447 4282807428
-0.69524932 0.48380816 0.21740505 4282214777
-0.68464178 0.4846192 0.21766706 4284186253
-0.67488039 0.48340929 0.21808262 4285239714
-0.6609596 0.48500186 0.21965438 4287604925
-0.65821749 0.48031336 0.21927445 4287539899
-1.0349941 0.49805874 0.21303301 4280692308
-1.024049 0.49800253 0.21462362 4280627027
-1.0153219 0.49746996 0.21542311 4281085777
-1.0079975 0.49684432 0.21257822 4281545038
-0.99378061 0.49855262 0.21361676 4280759117
-0.98519725 0.49681175 0.21475296 4280693585
-0.97595638 0.49630037 0.21500203 4281085778
-0.96633703 0.4957324 0.2139755 4281282642
-0.95405829 0.49517336 0.21427737 4281086288
-0.94579744 0.49543506 0.21628684 4281086802
-0.93429029 0.49411455 0.21469414 4281086288
-0.92501986 0.49463272 0.21496844 4281217617
-0.91599888 0.49434868 0.21566322 4280955216
-0.90479004 0.49634928 0.21575025 4281218387
-0.89376944 0.49742198 0.21476273 4281218128
-0.8857317 0.49613905 0.21544126 4281021781
-0.8756246 0.49476677 0.21424033 4280301655
-0.86285281 0.49416038 0.21562205 4279580502
-0.85542166 0.49193174 0.21604489 4279839826
-0.84467167 0.49233946 0.2180094 4281479771
-0.83203071 0.49091026 0.21620472 4280299602
-0.82530051 0.49125004 0.21730053 4280824149
-0.81508344 0.49254164 0.21737809 4279840593
-0.80811894 0.49232787 0.21560274 4282409083
-0.79250079 0.49266961 0.21582781 4281885051
-0.7850942 0.49344754 0.21516813 4284250256
-0.77518666 0.49462405 0.21454559 4285234061
-0.76895094 0.49403515 0.21631555 4281088594
-0.75310874 0.49069002 0.21814489 4280429635
-0.7440303 0.49341175 0.21755159 4279049009
-0.73300582 0.49682155 0.21751605 4281880158
-0.72574413 0.4937765 0.21490934 4284447618
-0.71856838 0.49056974 0.21958268 4283395709
-1.1150392 0.50628269 0.21539116 4280365635
-1.1084515 0.50510049 0.21616498 4280628041
-1.0927662 0.50664365 0.21643631 4281021775
-1.0850481 0.50475335 0.21517038 4281152334
-1.0756794 0.50309956 0.21400009 4281348945
-1.065107 0.50313985 0.21637414 4281282641
-1.0521789 0.50387466 0.21715534 4281807189
-1.0457536 0.50245702 0.21423766 4281151570
-1.0367482 0.50169438 0.21608357 4280888915
-1.0295422 0.50080293 0.21827713 4281347929
-0.99186569 0.50017828 0.21777575 4281807441
-0.79113966 0.50061184 0.21461076 4285504681
-0.78367734 0.50153577 0.213781 4286291368
-0.77872723 0.50164872 0.21202935 4287800493
-0.73304421 0.50464374 0.21308516 4284579464
-0.72586191 0.50336277 0.21331596 4285235847
-1.080192 0.56120366 0.21468902 4286747542
-1.075358 0.56582195 0.21461463 4284706932
-1.0741042 0.57505161 0.21453953 4278982959
-1.0736476 0.58503145 0.21506038 4279377466
-1.0725701 0.59495348 0.21568243 4279771456
-1.0696964 0.59620678 0.21642889 4279837248
-1.0717896 0.60502762 0.21522757 4280295744
-1.0691113 0.60529733 0.21396871 4280033601
-1.0735332 0.61536479 0.21534565 4280164929
-1.0764375 0.6244818 0.21491539 4279771455
-1.0764453 0.63423848 0.21531522 4280164415
-1.0755953 0.64545727 0.21610193 4280688447
-1.0813771 0.65513396 0.21477452 4280426815
-1.0776502 0.65478921 0.21549632 4280623168
-1.083582 0.66597599 0.21449238 4280426559
-1.0785981 0.66384375 0.21591961 4280295742
-0.72589809 0.66631979 0.21135341 4279968560
-1.0923471 0.67492008 0.21030644 4281015872
-1.0851663 0.674613 0.21625756 4280623167
-0.75559646 0.67517543 0.21014869 4279774273
-0.74536866 0.67820644 0.21080692 4280233290
-0.73142624 0.67753953 0.21092969 4279772215
-0.72352076 0.67628688 0.21090944 4281613901
-1.0867338 0.68444085 0.21460569 4280491583
-0.75108469 0.68247855 0.21000652 4280435543
-0.74456406 0.68432647 0.21035735 4279779923
-0.73171532 0.68440282 0.21233125 4280500562
-0.72917515 0.68437129 0.21048941 4280502095
-1.0903815 0.69711423 0.21225011 4280426818
-1.08667 0.69470698 0.21555679 4280492098
-1.093308 0.70505488 0.21488151 4280623683
-1.088055 0.70001626 0.21612251 4280296261
-1.0964322 0.71480262 0.21493529 4280492610
-1.0964023 0.72498846 0.21498051 4280361026
-1.096947 0.73486543 0.21494319 4280492355
-1.1021633 0.74550146 0.2125247 4280100163
-1.098184 0.74420667 0.21596746 4280492611
-1.1049846 0.75494212 0.21444148 4280623425
-1.1115856 0.76498741 0.21155831 4281016642
-1.105804 0.76403069 0.21581951 4280754755
-1.1105975 0.77802867 0.21209739 4280229954
-1.1074892 0.7753917 0.21609406 4280295746
-1.1109974 0.78734899 0.21516529 4280099392
-1.1078016 0.78541094 0.21510699 4280099136
-1.1123883 0.79594415 0.21411529 4280557631
-1.1093003 0.79318255 0.21611083 4280361279
-1.1151245 0.8053565 0.21542695 4280688447
-1.1167192 0.81548846 0.21502419 4280034113
-1.1218034 0.82577372 0.21332236 4281016127
-1.1183939 0.82330292 0.21638882 4280885311
-1.1256429 0.8345235 0.21437424 4280755009
-1.1309761 0.84557587 0.21434286 4280689988
-1.128003 0.84421539 0.21573256 4280427844
-1.1327429 0.85502446 0.21462578 4280952387
-1.1294135 0.85322982 0.21516138 4280821315
-1.1401882 0.86352658 0.21035671 4281673800
-1.1347864 0.86320418 0.21558574 4281214790
-0.75402808 0.24698056 0.22803301 4284248944
-0.75324011 0.25789317 0.22849782 4283264103
-0.74628633 0.25796944 0.22830595 4286090634
-0.75308436 0.26464644 0.22816439 4283002214
-0.74726266 0.26485625 0.22571404 4286353548
-0.75175834 0.27066934 0.22681364 4283923572
-0.74556959 0.27559933 0.22257619 4286549642
-1.6027836 0.28877637 0.22109221 4283587428
-0.74582261 0.2863889 0.22152399 4286352779
-1.6012236 0.2998406 0.22928472 4283918443
-1.5964148 0.2970396 0.22496986 4284049003
-0.74722034 0.29387689 0.22122824 4286221707
-1.6008942 0.30532044 0.2251718 4283525739
-1.597682 0.30397534 0.22193545 4283656811
-1.5932746 0.31491444 0.2265408 4283132524
-1.5931978 0.32114699 0.2222469 4282935399
-1.5863785 0.32678863 0.2273078 4283264365
-0.65251476 0.43569788 0.22253419 4288456368
-0.64765453 0.4347353 0.22801025 4281352018
-0.64746666 0.44478181 0.22620447 4282535267
-0.65143478 0.45850751 0.2252055 4280037453
-0.6482681 0.45474052 0.22531901 4282339948
-0.65312612 0.46567649 0.22500509 4280960095
-0.64973754 0.4615899 0.22094254 4286816431
-0.67363632 0.47965971 0.22597849 4279775056
-0.66388285 0.47830328 0.22557853 4280232269
-0.65743637 0.47434413 0.2245314 4280696667
-0.71368831 0.48857892 0.22463247 4280891989
-0.70538139 0.48708996 0.22512205 4279972945
-0.69583035 0.48306236 0.22439517 4280168271
-0.68378478 0.48259348 0.22450067 4280036942
-0.67635041 0.48186332 0.22428136 4279317328
-0.66377205 0.48177099 0.22324878 4281549925
-0.65946174 0.48032865 0.22086839 4283195513
-0.97515267 0.4988631 0.22182269 4281283154
-0.96606678 0.49937189 0.22212087 4281020499
-0.95520663 0.49978459 0.22107847 4281348693
-0.94515133 0.49803913 0.22252631 4281282640
-0.93497014 0.49862137 0.2237161 4280627792
-0.92485607 0.49879938 0.22497021 4281021008
-0.91509634 0.49798417 0.22507007 4281741907
-0.88494259 0.49817327 0.22372903 4281282132
-0.87534249 0.49797544 0.22522645 4281348180
-0.86506224 0.49696651 0.22412363 4280563542
-0.85640103 0.49579951 0.2263912 4280824659
-0.84457093 0.49587232 0.22642827 4280693332
-0.83604342 0.49547637 0.22458111 4280824405
-0.82609808 0.4960115 0.22549379 4280758611
-0.81502128 0.49558595 0.22583948 4281151829
-0.8047114 0.49441186 0.2250503 4280954708
-0.79533625 0.49276376 0.22530395 4281086038
-0.78471273 0.49304131 0.22553995 4280561751
-0.77440131 0.4923721 0.22464336 4281151830
-0.76379913 0.49280471 0.22485706 4281414998
-0.75485212 0.49164468 0.22529742 4281284181
-0.74515194 0.49164245 0.22489531 4280954703
-0.73459417 0.49374276 0.22398947 4279639868
-0.7247538 0.49324495 0.22487476 4280429385
-0.71760678 0.49103716 0.22508846 4281416537
-1.1137924 0.50675726 0.22405437 4280626752
-1.1031878 0.50701213 0.22786048 4281348681
-1.0958047 0.50644851 0.22401547 4281283148
-1.0841849 0.50530756 0.22533397 4281085259
-1.0743258 0.50370055 0.22486758 4281019725
-1.0664514 0.50439948 0.22461407 4280954703
-1.0551454 0.50529057 0.22443981 4280823633
-1.0446362 0.50496435 0.2243474 4281085777
-1.0340604 0.50481683 0.22563723 4281151313
-1.0243421 0.50319999 0.22536296 4281347409
-1.0147822 0.50224131 0.22510676 4281216339
-1.0031754 0.50400329 0.22684179 4280758097
-0.99591416 0.50254518 0.2231677 4281545042
-0.98524731 0.50302458 0.2253302 4281413710
-0.97488075 0.50228471 0.22711216 4281217358
-0.96447641 0.50192952 0.22717416 4281675856
-0.95387316 0.5020709 0.22727594 4281086546
-0.94824404 0.5008294 0.22463593 4281152082
-0.93702734 0.50259274 0.22840244 4280955470
-0.92657566 0.50122356 0.22996846 4281086288
-0.90146869 0.50078094 0.2261357 4281217364
-0.8934027 0.50106877 0.22588019 4281151828
-0.88795638 0.50064266 0.22645707 4281085780
-1.1162608 0.51009172 0.22499268 4281549134
-1.0711372 0.56825709 0.22650789 4284777615
-1.067436 0.56834108 0.22520924 4285698456
-1.0714885 0.57551628 0.222075 4279442738
-1.0679063 0.57414079 0.22661877 4280629319
-1.0712507 0.5843516 0.22641195 4279966264
-1.0688565 0.58535993 0.2252939 4279769913
-1.0718226 0.59530479 0.22539359 4279836990
-1.0689803 0.59319186 0.22636011 4279902012
-1.0731256 0.60489452 0.22515216 4280492353
-1.0694623 0.60063958 0.2219689 4279771712
-1.0743678 0.61543429 0.2249552 4280885057
-1.0803469 0.62800539 0.22640975 4279967809
-1.0774796 0.62430185 0.22452664 4280623171
-1.081081 0.63029575 0.22581476 4279836737
-1.0757982 0.63486755 0.22543062 4279967808
-1.0744504 0.64484042 0.22585377 4280164158
-1.0819596 0.65741301 0.22811201 4280753726
-1.0773942 0.65424579 0.22435749 4280229950
-1.0823244 0.66584593 0.22437756 4280622911
-1.0792654 0.66400194 0.2246162 4280557630
-1.0839075 0.67478895 0.22543167 4280033345
-1.0847836 0.68504918 0.22449945 4279443777
-1.0852408 0.69511199 0.22495115 4280492352
-1.0924152 0.70539355 0.22559279 4280951109
-1.0880429 0.70314759 0.22494271 4280885572
-1.0947927 0.71546561 0.22424567 4280623428
-1.1000227 0.72891229 0.22092995 4279771458
-1.095001 0.72534162 0.2248013 4280033603
-1.0946873 0.73563892 0.22550702 4280033858
-1.1007153 0.74601924 0.22972476 4280689475
-1.0966361 0.74485558 0.22524858 4280295488
-1.1030034 0.75662661 0.22553565 4280688961
-1.0982341 0.75311273 0.22415823 4280558145
-1.1057057 0.76552022 0.22450489 4280361794
-1.1100919 0.77884406 0.2285473 4280492612
-1.1070169 0.77491832 0.22514826 4280164930
-1.1119493 0.78673339 0.22563228 4280164671
-1.1084143 0.78474385 0.22401805 4280098880
-1.1140687 0.79539204 0.22419202 4280557887
-1.1148738 0.80457383 0.2251825 4280885312
-1.1148123 0.81496543 0.22565012 4280361536
-1.1154813 0.82565778 0.22527264 4280885566
-1.1220499 0.83665419 0.22466819 4280755522
-1.1183201 0.83317178 0.22505552 4280820288
-1.1238426 0.84502071 0.22588994 4280755268
-1.1312498 0.85752058 0.22405486 4281148226
-1.1279868 0.85379422 0.22529738 4281214020
-1.1330953 0.8657915 0.22616273 4281149253
-1.1291194 0.86207759 0.22353625 4281410884
-1.1376156 0.87150383 0.2281464 4281216588
-0.75266021 0.23401305 0.23323207 4281814089
-0.75489682 0.25720885 0.23109449 4281619278
-0.74839675 0.25799534 0.23100957 4282934111
-0.75718164 0.26287404 0.23022753 4280173630
-1.6007581 0.29513443 0.23185197 4284377969
-1.5950545 0.29566935 0.23590492 4283588968
-1.5944442 0.30453965 0.23503143 4283591019
-1.5956857 0.31360474 0.23406129 4283131496
-1.5891269 0.31390637 0.23952204 4283328873
-1.5915825 0.32478598 0.2353656 4283590505
-1.5887438 0.32397613 0.23225057 4283197546
-0.64730048 0.39990368 0.23990235 4279704366
-0.64797795 0.40610662 0.238013 4279835442
-0.65081924 0.41396439 0.23232822 4278261813
-0.64720976 0.41512406 0.23699392 4279245113
-0.6451447 0.42566192 0.2343882 4279444031
-0.64333427 0.4344773 0.23587663 4279573306
-0.64321619 0.44476444 0.23548712 4279507772
-0.63931137 0.44830599 0.23585594 4279180093
-0.64456773 0.4547945 0.23520045 4279836480
-0.63990456 0.4501566 0.23537518 4279311681
-0.65151447 0.46799314 0.2312793 4279772228
-0.64665061 0.46480817 0.23597701 4280033088
-0.67204994 0.47983024 0.23037432 4280428619
-0.66305506 0.47879675 0.23315153 4280822348
-0.65429097 0.47641847 0.23573409 4280362567
-0.64853555 0.47200429 0.23643236 4280296259
-0.71132588 0.48969817 0.23377691 4280429390
-0.70533031 0.48913622 0.23260242 4280430159
-0.69392085 0.48729581 0.23501572 4279709262
-0.68457073 0.48655969 0.23533586 4279119182
-0.67532086 0.48427236 0.2348533 4280166991
-0.66681963 0.48139426 0.23625712 4280756044
-0.65984267 0.48173806 0.23982662 4280690763
-0.91589642 0.4996565 0.23049191 4280759119
-0.88142252 0.49904385 0.2314643 4281151571
-0.87416142 0.49960065 0.23408276 4281150801
-0.8660866 0.49854034 0.23144528 4281348947
-0.85327721 0.49849877 0.23319633 4281151570
-0.84444839 0.49884829 0.23561408 4281151571
-0.83458018 0.49892852 0.23516907 4280627026
-0.824835 0.49788761 0.2348257 4280299601
-0.81618011 0.49703616 0.23465352 4280562515
-0.80461019 0.49691951 0.23500721 4280889427
-0.79470903 0.49581119 0.23391685 4281021269
-0.78461146 0.49553707 0.23513457 4281086292
-0.77590311 0.49425942 0.23383614 4281216599
-0.76510912 0.49465507 0.23502216 4281086039
-0.75545812 0.49376753 0.23482786 4281348697
-0.7446298 0.49459991 0.23564601 4281151059
-0.73520285 0.49460417 0.23478492 4281019730
-0.72464067 0.4943442 0.23499133 4280888400
-0.7155956 0.49249086 0.23481376 4280560718
-0.70546734 0.49167508 0.23689492 4280429646
-0.6975168 0.49129748 0.23784149 4280299344
-1.1122179 0.50808501 0.23172097 4281086019
-1.1042631 0.50817096 0.23446794 4281676618
-1.0952817 0.50820851 0.23451203 4281544522
-1.0852846 0.50672573 0.23497561 4281412427
-1.0753868 0.5060156 0.23540016 4281018700
-1.0668072 0.50735945 0.23661274 4281018956
-1.0558558 0.50750035 0.2318113 4280888911
-1.0445395 0.50801432 0.23311324 4280626510
-1.0349944 0.5085234 0.23448302 4280560974
-1.0252414 0.50744224 0.2347389 4280757838
-1.0148695 0.50864106 0.23732702 4280496206
-1.005578 0.50692099 0.23469986 4281020494
-0.99485701 0.5076443 0.23577106 4280626764
-0.98479843 0.50809145 0.23550102 4280823629
-0.97513616 0.50617445 0.23541364 4281087056
-0.96460056 0.50455832 0.23549336 4280890962
-0.95540786 0.50325352 0.23518293 4280955216
-0.94426572 0.50285119 0.23535486 4280693072
-0.9356944 0.50171798 0.23477405 4280496206
-0.9248991 0.50162083 0.2352615 4280955472
-0.91758353 0.50208026 0.23544855 4280955472
-0.90572864 0.50382608 0.23522678 4280562255
-0.89478773 0.50355279 0.23534301 4280496720
-0.88518083 0.50189966 0.23527065 4280693074
-0.87670493 0.50174588 0.23709516 4280955219
-0.86353081 0.50062901 0.23627551 4281020240
-0.85442758 0.50084841 0.23780499 4281020497
-0.84777868 0.50094295 0.23799393 4281151828
-1.1131295 0.51207227 0.23462541 4281481543
-1.1060587 0.51070005 0.23790516 4281480007
-1.0541431 0.51024956 0.23775469 4280822348
-1.0455217 0.51055384 0.23761266 4280822605
-1.0657321 0.56855798 0.23433919 4285564819
-1.0722346 0.57554525 0.23458844 4278849834
-1.0664022 0.57245028 0.23523109 4282471525
-1.0723581 0.58494395 0.23516326 4280293946
-1.0694238 0.58308405 0.23373491 4280096053
-1.0744331 0.59474522 0.23442161 4280164156
-1.0747373 0.60569155 0.23544118 4280164671
-1.0727113 0.6165486 0.2348662 4280295231
-1.0693854 0.61442584 0.23200665 4280359996
-1.075104 0.62485814 0.23495427 4280360256
-1.0757784 0.63497454 0.23524447 4280032574
-1.0807751 0.64834756 0.23268637 4280359996
-1.0763985 0.64495343 0.23521133 4280294717
-1.0821214 0.65583694 0.23585325 4280622400
-1.0788991 0.65260369 0.23496743 4280491070
-1.0838761 0.66474193 0.23447567 4280688191
-1.0840124 0.67522776 0.23543856 4280294978
-1.0830669 0.68538696 0.2351708 4280164675
-1.0824867 0.69507819 0.23462412 4280230464
-1.0796593 0.69249606 0.23418729 4280230979
-1.0927776 0.70850396 0.23591463 4280558403
-1.0855718 0.70455956 0.2355081 4280558146
-1.0933946 0.71540117 0.23458961 4280426817
-1.0952473 0.72507751 0.23521216 4280296001
-1.0964402 0.73477852 0.234565 4280230465
-1.1006728 0.74600166 0.23850724 4280361792
-1.097702 0.74492568 0.23429772 4280164928
-1.1028924 0.7571134 0.23565519 4280296770
-1.0980047 0.75466484 0.23565459 4280492865
-1.1112173 0.76776409 0.23745553 4280099391
-1.1067561 0.76455629 0.23386247 4279903296
-1.1110802 0.77386397 0.23317331 4280821059
-1.1079023 0.77532607 0.2360346 4280623937
-1.1109239 0.78664547 0.23319453 4280295999
-1.1078451 0.78394407 0.23545578 4280361535
-1.1138548 0.79488188 0.23514557 4280230463
-1.1092489 0.79510212 0.23416847 4280492864
-1.1151792 0.80475783 0.23482555 4280557889
-1.1161871 0.814731 0.23547707 4280885569
-1.1220337 0.82744461 0.23770981 4280754496
-1.1172136 0.82415313 0.23371026 4281017153
-1.1231232 0.8355608 0.23520926 4280296257
-1.1194011 0.83289576 0.23064654 4280558658
-1.1250263 0.84530842 0.23500854 4280951876
-1.1316191 0.8563264 0.2323949 4280952131
-1.1279184 0.85406673 0.23606865 4281017668
-1.1342828 0.86609858 0.23404323 4281083461
-1.1282328 0.86264056 0.23789953 4281345862
-1.1367354 0.87049854 0.23651347 4281280328
-1.5955625 0.29831988 0.24065949 4283985009
-1.5912749 0.30773306 0.2464464 4283525226
-1.5883595 0.30614734 0.24375464 4283591020
-1.5923263 0.3148756 0.24299471 4283525738
-1.5848657 0.31706947 0.24954943 4283525479
-1.5908941 0.32947522 0.24897245 4283786863
-1.5865065 0.32603011 0.24563415 4283787627
-0.64556271 0.38828972 0.24783196 4286746253
-0.64749312 0.39445049 0.2452331 4282932070
-0.64705074 0.40491217 0.24479948 4279835449
-0.64625555 0.4145976 0.24529421 4280032571
-0.64429152 0.42461079 0.24476644 4280097851
-0.64161664 0.43491817 0.24489717 4280294715
-0.63949704 0.4364191 0.24674335 4279901243
-0.64147758 0.44489321 0.24530672 4280032316
-0.63915968 0.4420298 0.24517974 4280163644
-0.64315253 0.45489052 0.24431954 4279835708
-0.65083635 0.46845499 0.24642093 4279772996
-0.6464749 0.46493581 0.24515183 4279902785
-0.66267008 0.47963986 0.24598752 4280363340
-0.65443891 0.47580621 0.2450213 4280297545
-0.64927375 0.47167236 0.24356443 4280034630
-0.69238043 0.48923835 0.2426067 4280692047
-0.68314075 0.48912445 0.24477299 4280036172
-0.67480338 0.48575693 0.24466702 4280822092
-0.6662339 0.48240587 0.24514648 4280232267
-0.84119809 0.49978682 0.24970303 4281216080
-0.83544546 0.49978945 0.2448514 4280823377
-0.82604176 0.4999046 0.24067223 4280889684
-0.81071341 0.49883467 0.24104425 4280365397
-0.80589187 0.49903616 0.24175242 4280495955
-0.79700708 0.49934509 0.24067898 4281216853
-0.78595304 0.4983224 0.24123524 4281020247
-0.7725662 0.49850491 0.2415027 4281413206
-0.76465344 0.49857968 0.24472885 4281150804
-0.75501293 0.49860388 0.24469131 4280888660
-0.74351263 0.4971866 0.24514781 4280495956
-0.7355302 0.49485785 0.24449171 4280888402
-0.72464228 0.49444354 0.24510509 4280953169
-0.71525264 0.4927648 0.24462067 4281083471
-0.7041859 0.49193251 0.24503238 4281149264
-0.69509166 0.49109754 0.24514531 4280822608
-0.68475288 0.49169016 0.24865487 4279707979
-1.0952628 0.50911933 0.24446489 4281412682
-1.0847814 0.50852001 0.24351342 4281215049
-1.0744547 0.50861824 0.24562581 4281215051
-1.0651505 0.50767291 0.24468796 4281150028
-1.0337886 0.50880432 0.24660768 4281019213
-1.0246801 0.50908822 0.24614553 4280822862
-1.0160947 0.5079059 0.24461676 4280888398
-1.005114 0.50749326 0.24228951 4281084748
-0.99313629 0.50842851 0.24563226 4280626509
-0.98484516 0.50843686 0.24574748 4280299598
-0.97550237 0.50763327 0.2437294 4281282897
-0.96453035 0.50811535 0.24426112 4280954702
-0.95676965 0.50603938 0.24502036 4280627024
-0.94445622 0.50410706 0.24461015 4281019984
-0.93685979 0.50272304 0.24474056 4281217361
-0.9255079 0.50418746 0.24645387 4281021265
-0.91528773 0.50442791 0.24414636 4280823886
-0.90348136 0.50721407 0.24558143 4280954702
-0.89438242 0.50680423 0.24455556 4280627280
-0.88527322 0.50489289 0.24452706 4280562001
-0.87474304 0.50405449 0.24531369 4281019985
-0.86373973 0.50379235 0.24488838 4281019985
-0.85560429 0.50200129 0.24384141 4281020242
-0.84538633 0.50172967 0.24561195 4281348179
-0.83843803 0.50179923 0.24478994 4280888656
-0.82225728 0.50277787 0.24621426 4280889940
-0.81568098 0.50141984 0.24570937 4280692820
-0.80598879 0.50127321 0.24625514 4280626771
-0.79430282 0.50203472 0.24597237 4280626257
-0.78540087 0.50218904 0.24674615 4281150291
-0.77522445 0.50157923 0.2467832 4281347668
-0.76764011 0.50113887 0.24749893 4281282388
-0.7515251 0.50019252 0.24853857 4280954195
-0.74617213 0.50055659 0.24845196 4280889686
-1.1112437 0.51567072 0.24477518 4282138954
-1.1048154 0.51373571 0.24512078 4281152066
-1.0967778 0.51158291 0.24652529 4281413705
-1.065766 0.51034778 0.24973266 4281281359
-1.0524855 0.51053226 0.2448407 4281018700
-1.044933 0.51094002 0.24567081 4281018956
-1.0350949 0.5110485 0.24425986 4280888141
-0.99680156 0.51068592 0.24825032 4281018956
-1.0820206 0.56146556 0.24511144 4285301901
-1.077041 0.56537497 0.24513705 4283788151
-1.0667974 0.56854981 0.2401308 4285629585
-1.073264 0.57435 0.2451162 4279245360
-1.0694327 0.57201684 0.24119526 4281614675
-1.0725477 0.58475608 0.24342585 4279900473
-1.0682039 0.58715707 0.24883634 4279638328
-1.0726707 0.5949949 0.24402528 4279770427
-1.0690185 0.59546149 0.24723928 4279639099
-1.0721803 0.60613972 0.24519859 4279967036
-1.0692089 0.60521364 0.24680455 4280098109
-1.0734407 0.61551446 0.24532801 4279836220
-1.0698533 0.61427248 0.24153844 4279705919
-1.074809 0.62541848 0.24553549 4280491071
-1.0764195 0.63562649 0.24445759 4280163132
-1.0813204 0.6454553 0.24416138 4280098878
-1.0780584 0.64385945 0.24423853 4279901500
-1.0818084 0.65533358 0.24318495 4280229437
-1.0781757 0.65457934 0.24676241 4280033341
-1.0834402 0.66531998 0.24397925 4280622654
-1.0786475 0.66287178 0.24840856 4280229950
-1.0837492 0.67484772 0.24525379 4280164416
-1.0907848 0.68835843 0.24690408 4280361794
-1.08498 0.6851353 0.2447038 4280361283
-1.0908738 0.69912684 0.24859653 4279771455
-1.0859345 0.69527996 0.2448173 4279902784
-1.0910395 0.70581055 0.24431168 4279837248
-1.0880308 0.70485353 0.24475372 4279771712
-1.0936816 0.71470398 0.2446743 4280164672
-1.1003152 0.72991127 0.24887577 4279903553
-1.0960898 0.72558111 0.24545956 4280427587
-1.1014413 0.73630404 0.24602495 4279903296
-1.0977401 0.73431718 0.24258998 4280164929
-1.1023077 0.74546301 0.24513082 4280558400
-1.0994959 0.74210995 0.24549253 4280295999
-1.1040436 0.75528198 0.24494246 4280493122
-1.0990334 0.75260806 0.24077217 4280820289
-1.1111298 0.76494616 0.24365187 4280426558
-1.1082726 0.76437312 0.24564891 4280688960
-1.111075 0.77474827 0.24286778 4280558143
-1.1083834 0.77555907 0.24532337 4280557886
-1.1109332 0.78621686 0.24358086 4280558144
-1.1078447 0.78448325 0.24612375 4280754752
-1.1127597 0.79484707 0.24536955 4280427072
-1.109628 0.79329461 0.24469891 4280623937
-1.1204314 0.80878103 0.24820539 4280164670
-1.1160096 0.80533695 0.24482197 4280426302
-1.1213185 0.81610322 0.24442084 4280754752
-1.1181983 0.81480134 0.24480426 4280820032
-1.122097 0.82497752 0.24575563 4281082433
-1.1191624 0.82377476 0.24530299 4281016896
-1.1227827 0.8349002 0.24471235 4281278785
-1.1188896 0.83989155 0.24998921 4280885568
-1.1239144 0.84529191 0.24489035 4280688961
-1.1195878 0.84206986 0.24942333 4280885568
-1.1257453 0.85515428 0.24512394 4280951617
-1.1309551 0.86522686 0.24628776 4281017925
-1.1281005 0.86415315 0.24473383 4281280069
-1.1412253 0.87151271 0.24868 4280822603
-1.1345738 0.87094563 0.24489823 4281017927
-1.1286643 0.87038761 0.2420669 4281345350
-1.5918502 0.30309036 0.25031281 4284311917
-1.5844184 0.30561307 0.25668326 4283982182
-1.5905502 0.3155978 0.25786912 4283459429
-1.5864 0.31332028 0.25405112 4283590759
-1.59097 0.32331029 0.25321975 4283525481
-1.5863674 0.32330003 0.25435227 4283459430
-1.5839801 0.33224839 0.255842 4283524972
-0.64603645 0.38937303 0.25506818 4286549131
-0.64719653 0.39408067 0.25447407 4284577403
-0.64563698 0.40458703 0.2548517 4279312698
-0.64341408 0.41560131 0.2554355 4279573562
-0.64228404 0.42518601 0.25562772 4279507767
-0.64145273 0.43509051 0.25486594 4279441976
-0.6392504 0.4346779 0.25024486 4279967036
-0.64182538 0.44535333 0.25456321 4279573306
-0.63968486 0.44309825 0.25749308 4279573305
-0.64304692 0.45533052 0.25528347 4279639099
-0.6503433 0.46978015 0.25592494 4279969347
-0.64608681 0.46490893 0.25453702 4279968064
-0.66145599 0.47732148 0.25546956 4280297803
-0.65540415 0.47451109 0.25491208 4280166985
-0.64778984 0.47112834 0.25790292 4280297028
-0.68156129 0.48868728 0.25079706 4279707467
-0.67333388 0.48721254 0.25490984 4280428878
-0.66554552 0.48224148 0.25517181 4280428364
-0.65927833 0.48004451 0.25082904 4280232267
-0.83835059 0.49994993 0.25298199 4280823377
-0.77093303 0.49922267 0.25303435 4280823634
-0.76466769 0.49963734 0.2535024 4281020242
