# .PCD v0.7 - Point Cloud Data file format
VERSION 0.7
FIELDS x y z rgba
SIZE 4 4 4 4
TYPE F F F U
COUNT 1 1 1 1
WIDTH 1085
HEIGHT 1
VIEWPOINT 0 0 0 1 0 0 0
POINTS 1085
DATA ascii
-1.0481445 0.51727241 0.45555758 4291548004
-1.0388606 0.51694441 0.45647454 4291548004
-1.024331 0.51712191 0.45581335 4291548004
-1.0133138 0.51505411 0.45600796 4291548004
-1.0021125 0.51371241 0.45618162 4291548004
-0.99233216 0.51173651 0.45478979 4291548004
-0.97555363 0.51471025 0.45486343 4291548004
-0.9672817 0.5144189 0.45527902 4291548004
-0.95568573 0.51568437 0.45596999 4291548004
-0.94223928 0.51747805 0.45411542 4291548004
-0.93377155 0.51597947 0.45630193 4291548004
-0.9254874 0.5159117 0.45538583 4291548004
-0.91459733 0.51724339 0.45335555 4291548004
-0.9049921 0.51398623 0.45420238 4291548004
-0.89293981 0.51320696 0.45437929 4291548004
-0.88562667 0.51330012 0.45151061 4291548004
-0.87522864 0.51484454 0.45489994 4291548004
-0.86252433 0.51496315 0.45468369 4291548004
-0.85555822 0.51533127 0.45765445 4291548004
-0.84725302 0.51564199 0.45448181 4291548004
-0.8363409 0.51289159 0.45467612 4291548004
-0.8250348 0.51266533 0.45580333 4291548004
-0.81765598 0.51197547 0.45535174 4291548004
-1.1289108 0.52426952 0.45510978 4291548004
-1.0881733 0.52152979 0.45496893 4291548004
-1.0488747 0.52042985 0.4554247 4291548004
-1.1246579 0.54974657 0.45683283 4291548004
-1.1261736 0.556301 0.45655695 4291548004
-1.1152313 0.55435234 0.45226732 4291548004
-1.1183356 0.56684142 0.45620266 4291548004
-1.1106671 0.57811624 0.45581746 4291548004
-1.1123008 0.58527988 0.4550406 4291548004
-1.1142316 0.59422624 0.45181197 4291548004
-1.1056025 0.59585929 0.45680657 4291548004
-1.1177884 0.60891032 0.4545213 4291548004
-1.1077487 0.60548705 0.45474589 4291548004
-1.1202209 0.61873221 0.45743534 4291548004
-1.1160612 0.61477107 0.45430419 4291548004
-1.1122946 0.62523049 0.45350099 4291548004
-1.1144619 0.63451558 0.45352396 4291548004
-1.1168821 0.64428872 0.45642355 4291548004
-1.1200484 0.65728724 0.45918733 4291548004
-1.1190038 0.65354961 0.45561984 4291548004
-1.1214883 0.66427648 0.45525107 4291548004
-1.1240863 0.67537862 0.4554159 4291548004
-1.1265786 0.68621886 0.45465863 4291548004
-1.1288162 0.69589514 0.45425135 4291548004
-1.1310539 0.70557123 0.45384401 4291548004
-1.1333524 0.71527976 0.45453903 4291548004
-1.1357119 0.72502053 0.45633629 4291548004
-1.138041 0.7347452 0.45758244 4291548004
-1.12774 0.7356801 0.45264775 4291548004
-1.1405602 0.74598557 0.45545384 4291548004
-1.1394414 0.74114752 0.45565748 4291548004
-1.1288526 0.74049133 0.45244524 4291548004
-1.1424249 0.75404912 0.45511442 4291548004
-1.1444753 0.76281756 0.45521832 4291548004
-1.1356192 0.76940715 0.45287439 4291548004
-1.1478288 0.7767238 0.45747089 4291548004
-1.1370782 0.77545738 0.45385444 4291548004
-1.1504393 0.78801274 0.45699573 4291548004
-1.1401606 0.78870046 0.45370859 4291548004
-1.139181 0.78456277 0.45341238 4291548004
-1.1522126 0.79602778 0.45500287 4291548004
-1.1408114 0.79185975 0.4519293 4291548004
-1.1545416 0.8057524 0.45624909 4291548004
-1.1567793 0.81542856 0.45584175 4291548004
-1.159017 0.82510477 0.45543444 4291548004
-1.17137 0.83782482 0.45819557 4291548004
-1.1611387 0.83436567 0.45463079 4291548004
-1.1635627 0.84484822 0.45418957 4291548004
-1.16573 0.85413331 0.45421255 4291548004
-1.1887082 0.86975098 0.45014417 4291548004
-1.1783077 0.86852151 0.453576 4291548004
-1.1679676 0.86380947 0.45380533 4291548004
-1.2010448 0.87707037 0.45735267 4291548004
-1.1904926 0.87641662 0.45488226 4291548004
-1.1896466 0.87310821 0.45334864 4291548004
-1.1791492 0.87181175 0.45510125 4291548004
-1.2019458 0.88114232 0.45634022 4291548004
-0.68503529 0.47912997 0.46479285 4291548004
-0.69466484 0.48621929 0.46466422 4291548004
-0.68584377 0.48274308 0.46408191 4291548004
-0.72529095 0.49739933 0.46507916 4291548004
-0.71336484 0.49482137 0.46473542 4291548004
-0.70408851 0.49209023 0.46465039 4291548004
-0.69992429 0.49074131 0.4615778 4291548004
-0.86193585 0.50967538 0.46800494 4291548004
-0.8144269 0.50931078 0.46519274 4291548004
-0.80576819 0.50750536 0.46491554 4291548004
-0.79630357 0.50644696 0.46561983 4291548004
-0.78620231 0.50553966 0.46571994 4291548004
-0.7756592 0.50588292 0.46659487 4291548004
-0.76566356 0.50533062 0.46547517 4291548004
-0.75462854 0.50411648 0.46538219 4291548004
-0.74150193 0.50512481 0.46542531 4291548004
-0.73471332 0.50259328 0.4648037 4291548004
-0.72832185 0.50161833 0.46488735 4291548004
-1.1279882 0.5187692 0.46255732 4291548004
-1.117074 0.51601297 0.46273825 4291548004
-1.1073968 0.51778841 0.46663189 4291548004
-1.097075 0.51829481 0.46332666 4291548004
-1.0879754 0.51859516 0.46502519 4291548004
-1.0778537 0.51926905 0.46504951 4291548004
-1.0686775 0.51958686 0.46508357 4291548004
-1.0594192 0.51988924 0.46348849 4291548004
-1.0486813 0.51755708 0.46526912 4291548004
-1.0349604 0.51822162 0.46531227 4291548004
-1.020895 0.51739591 0.46541822 4291548004
-1.0119878 0.51443285 0.46558511 4291548004
-1.0021975 0.51222676 0.46509328 4291548004
-0.9929238 0.51182646 0.46657562 4291548004
-0.97606897 0.51498365 0.46419001 4291548004
-0.96449423 0.51777494 0.46646294 4291548004
-0.95545262 0.51677501 0.46500817 4291548004
-0.94296455 0.51803672 0.4664022 4291548004
-0.9345305 0.51724732 0.46586716 4291548004
-0.92607123 0.51622146 0.46595252 4291548004
-0.91395223 0.51523805 0.46455368 4291548004
-0.90378922 0.51350904 0.4646852 4291548004
-0.89351273 0.51351088 0.46474704 4291548004
-0.88636017 0.51368916 0.46478283 4291548004
-0.87476367 0.51315117 0.46527594 4291548004
-0.86259484 0.51313472 0.46494853 4291548004
-0.85547173 0.51404703 0.46205544 4291548004
-0.8443284 0.51413834 0.46501765 4291548004
-0.83441365 0.51410705 0.46421725 4291548004
-0.82561696 0.51321733 0.46516779 4291548004
-0.81568056 0.51153076 0.46623623 4291548004
-1.1293961 0.52452695 0.46389341 4291548004
-1.1185848 0.52160639 0.46698833 4291548004
-1.1082429 0.52109671 0.46816552 4291548004
-1.088904 0.52191752 0.46819621 4291548004
-1.0596889 0.52003241 0.46837175 4291548004
-1.0494113 0.52071452 0.4651362 4291548004
-1.1249363 0.54989433 0.46187282 4291548004
-1.1261097 0.5542134 0.46529546 4291548004
-1.1185535 0.56578261 0.46580663 4291548004
-1.1107184 0.57624745 0.46587846 4291548004
-1.1128364 0.58534229 0.46579811 4291548004
-1.1155246 0.59633404 0.46836039 4291548004
-1.1063409 0.59766585 0.46335235 4291548004
-1.1179631 0.60729665 0.46590251 4291548004
-1.1082057 0.6057294 0.46301296 4291548004
-1.1204045 0.61882961 0.46075866 4291548004
-1.1180372 0.61456364 0.46426806 4291548004
-1.1128885 0.6255455 0.46424818 4291548004
-1.1151211 0.63514835 0.46409231 4291548004
-1.1174302 0.64457947 0.46634403 4291548004
-1.1204139 0.65748113 0.46580097 4291548004
-1.119295 0.65264302 0.46600461 4291548004
-1.1219057 0.66393191 0.46552944 4291548004
-1.1242741 0.67424339 0.4647643 4291548004
-1.1268722 0.68534559 0.4649291 4291548004
-1.1302017 0.69945973 0.46568948 4291548004
-1.1291252 0.69525051 0.4637382 4291548004
-1.131602 0.70586205 0.46376452 4291548004
-1.1339312 0.71558672 0.4650107 4291548004
-1.1362602 0.72531134 0.46625677 4291548004
-1.1384978 0.73498756 0.46584952 4291548004
-1.1409746 0.74559909 0.46587583 4291548004
-1.1398981 0.74138987 0.46392453 4291548004
-1.1429729 0.75433993 0.4650349 4291548004
-1.1452107 0.76401615 0.46462762 4291548004
-1.1474483 0.77369231 0.46422032 4291548004
-1.1508049 0.78820658 0.46360943 4291548004
-1.149313 0.78175575 0.46388093 4291548004
-1.1527915 0.79633462 0.46547455 4291548004
-1.1550899 0.80604315 0.46616951 4291548004
-1.1573274 0.81571937 0.46576226 4291548004
-1.1603111 0.82862091 0.46521917 4291548004
-1.1591922 0.82378286 0.46542284 4291548004
-1.1713625 0.83639884 0.46491039 4291548004
-1.161057 0.83184642 0.46508339 4291548004
-1.173535 0.845514 0.46585774 4291548004
-1.1642307 0.84626365 0.46116567 4291548004
-1.1751106 0.85260636 0.46422824 4291548004
-1.1663847 0.85488492 0.46411368 4291548004
-1.1787171 0.86802775 0.46441096 4291548004
-1.1683998 0.86368501 0.4633294 4291548004
-1.2014046 0.87682992 0.46594134 4291548004
-1.1904813 0.87426597 0.46501017 4291548004
-1.1796082 0.87205523 0.46340957 4291548004
-0.68582696 0.47954991 0.47911909 4291548004
-0.70020276 0.4886412 0.47744629 4291548004
-0.69508928 0.48492199 0.47468334 4291548004
-0.68418741 0.48216978 0.47509816 4291548004
-0.67979902 0.48088333 0.47558793 4291548004
-0.73447269 0.49902099 0.47704512 4291548004
-0.72460753 0.49789211 0.47472122 4291548004
-0.71400821 0.49564108 0.47407144 4291548004
-0.70531732 0.49225801 0.47466114 4291548004
-0.81425095 0.50865912 0.47531378 4291548004
-0.80331111 0.50802875 0.47533786 4291548004
-0.79469752 0.50782633 0.47534227 4291548004
-0.78700656 0.50568652 0.47543064 4291548004
-0.77599168 0.50558776 0.47488278 4291548004
-0.76298887 0.50519872 0.47572118 4291548004
-0.75476098 0.50285745 0.4741838 4291548004
-0.7455892 0.50308031 0.47476414 4291548004
-0.73523241 0.50286865 0.47419626 4291548004
-0.72869116 0.50181425 0.47156885 4291548004
-1.1181004 0.51751578 0.47669223 4291548004
-1.1078585 0.51803327 0.47498599 4291548004
-1.0978096 0.51868445 0.47661996 4291548004
-1.0885236 0.51888597 0.47494566 4291548004
-1.0783989 0.51955825 0.474915 4291548004
-1.0692201 0.51987475 0.47489956 4291548004
-1.0455924 0.51803297 0.47561669 4291548004
-1.0331621 0.51859629 0.47413903 4291548004
-1.0214235 0.51767623 0.47498128 4291548004
-1.0125504 0.51500273 0.47445649 4291548004
-1.003262 0.51454723 0.47589904 4291548004
-0.99393219 0.51437658 0.47511402 4291548004
-0.98576397 0.51461792 0.47510198 4291548004
-0.96583015 0.51724494 0.47537395 4291548004
-0.95142591 0.51743412 0.47420871 4291548004
-0.94316119 0.51709753 0.47498772 4291548004
-0.93469125 0.5160346 0.47503054 4291548004
-0.92623138 0.51501459 0.47507158 4291548004
-0.91453201 0.51554555 0.47504655 4291548004
-0.90250987 0.51468015 0.47508025 4291548004
-0.89408571 0.51381475 0.47511482 4291548004
-0.88693064 0.51399183 0.47510567 4291548004
-0.87603354 0.5128057 0.47515318 4291548004
-0.86299324 0.5127241 0.47515365 4291548004
-0.855865 0.51301718 0.47513965 4291548004
-0.84595418 0.51313168 0.475135 4291548004
-0.83574599 0.51344377 0.47511277 4291548004
-0.82616645 0.5135088 0.47511208 4291548004
-0.81488734 0.51141161 0.47519791 4291548004
-1.1234165 0.52604061 0.474646 4291548004
-1.1191443 0.52238244 0.47480533 4291548004
-1.1084276 0.5211947 0.47150719 4291548004
-1.0890868 0.52201444 0.47150305 4291548004
-1.0601387 0.52027094 0.47651052 4291548004
-1.0549979 0.52061099 0.47485608 4291548004
-1.0498586 0.52095175 0.47322917 4291548004
-1.1266844 0.55484688 0.47411165 4291548004
-1.1189724 0.56539208 0.47633842 4291548004
-1.1211079 0.57462686 0.47594965 4291548004
-1.1199183 0.57018316 0.47279093 4291548004
-1.1235871 0.58499724 0.47718605 4291548004
-1.1138343 0.58832777 0.47202483 4291548004
-1.1254716 0.59314561 0.47684306 4291548004
-1.1161182 0.59778649 0.47362319 4291548004
-1.1181407 0.60625339 0.47459772 4291548004
-1.114308 0.61635458 0.47415736 4291548004
-1.1133206 0.62542099 0.47377226 4291548004
-1.1156495 0.63514566 0.47501841 4291548004
-1.1179786 0.64487028 0.47626454 4291548004
-1.1205891 0.65615922 0.4757894 4291548004
-1.1194704 0.65132111 0.47599301 4291548004
-1.1224539 0.66422272 0.47544992 4291548004
-1.1246915 0.67389888 0.47504267 4291548004
-1.1270602 0.68421048 0.47427756 4291548004
-1.1305177 0.69892001 0.47481722 4291548004
-1.1291668 0.69325125 0.47422811 4291548004
-1.1321503 0.7061528 0.473685 4291548004
-1.1345098 0.71589363 0.47548226 4291548004
-1.1368084 0.72560209 0.47617733 4291548004
-1.139046 0.73527837 0.47577 4291548004
-1.1412836 0.74495447 0.47536266 4291548004
-1.1435214 0.75463074 0.47495541 4291548004
-1.1457591 0.7643069 0.47454813 4291548004
-1.1479965 0.77398312 0.47414079 4291548004
-1.1506071 0.78527194 0.47366568 4291548004
-1.1494883 0.78043389 0.47386932 4291548004
-1.1529286 0.79488373 0.47529858 4291548004
-1.1556381 0.80633396 0.47609001 4291548004
-1.1578759 0.81601018 0.4756828 4291548004
-1.16412 0.82686311 0.47591871 4291548004
-1.1595083 0.82324308 0.47455055 4291548004
-1.171352 0.83440268 0.47431126 4291548004
-1.1632797 0.83868486 0.47803923 4291548004
-1.1735542 0.84396017 0.4737426 4291548004
-1.1649592 0.84617853 0.47662017 4291548004
-1.1668264 0.85471493 0.47405359 4291548004
-1.1788511 0.86738789 0.47026092 4291548004
-1.1689937 0.86400008 0.47407663 4291548004
-1.2021163 0.87835747 0.47327814 4291548004
-1.1914122 0.87618947 0.4749665 4291548004
-1.1806258 0.874017 0.47497302 4291548004
-1.1737566 0.87134361 0.47337088 4291548004
-1.192539 0.88036168 0.47813672 4291548004
-0.66827041 0.4290821 0.48707417 4291548004
-0.66717756 0.44661635 0.48617572 4291548004
-0.66843808 0.4520402 0.4860768 4291548004
-0.68560481 0.47700042 0.48681328 4291548004
-0.70138627 0.48809868 0.48630491 4291548004
-0.69628227 0.48345429 0.48515931 4291548004
-0.68677437 0.48228145 0.48552409 4291548004
-0.67993844 0.48021743 0.48167557 4291548004
-0.75428581 0.49795294 0.48799908 4291548004
-0.74392432 0.49867696 0.48707262 4291548004
-0.73476529 0.4984107 0.48602712 4291548004
-0.72528434 0.49674547 0.4844228 4291548004
-0.71471512 0.49621755 0.48589292 4291548004
-0.7065503 0.49311191 0.48509246 4291548004
-0.82583326 0.50968504 0.48665205 4291548004
-0.81243241 0.50824058 0.48435703 4291548004
-0.80385315 0.50831634 0.48514742 4291548004
-0.79336172 0.50818837 0.48564133 4291548004
-0.78524286 0.50659329 0.48417488 4291548004
-0.77657521 0.50684035 0.48089871 4291548004
-0.76481169 0.50568688 0.48500767 4291548004
-0.75505525 0.50185049 0.48511326 4291548004
-0.74498135 0.50109816 0.48237732 4291548004
-0.73530048 0.50175649 0.48096034 4291548004
-1.1284372 0.51563466 0.48693043 4291548004
-1.1179497 0.51527947 0.48435569 4291548004
-1.0982689 0.51892799 0.48492828 4291548004
-1.0888101 0.51790607 0.48558182 4291548004
-1.0783424 0.51741773 0.48405966 4291548004
-1.066777 0.51708561 0.48564702 4291548004
-1.0597641 0.51728654 0.48315519 4291548004
-1.0465813 0.51774341 0.48469386 4291548004
-1.0314516 0.51901746 0.48455134 4291548004
-1.0219518 0.51795661 0.48454431 4291548004
-1.0133977 0.51653832 0.48455808 4291548004
-1.0039197 0.51557136 0.48454711 4291548004
-0.99427921 0.5145607 0.48139405 4291548004
-0.98659861 0.51613045 0.48505181 4291548004
-0.96654445 0.5169903 0.48427689 4291548004
-0.95180339 0.51697898 0.48419502 4291548004
-0.94342518 0.51619422 0.48479256 4291548004
-0.93498129 0.51553941 0.4834044 4291548004
-0.92673182 0.51528007 0.48412871 4291548004
-0.91502911 0.51580924 0.48404041 4291548004
-0.90309829 0.51517433 0.4848527 4291548004
-0.89465857 0.51411867 0.48548254 4291548004
-0.887501 0.51429439 0.48542857 4291548004
-0.87679338 0.51404339 0.48487985 4291548004
-0.86404741 0.51514906 0.48523942 4291548004
-0.85488874 0.51543576 0.48578474 4291548004
-0.84433818 0.51292688 0.48520684 4291548004
-0.83349985 0.51200837 0.4851785 4291548004
-0.82639563 0.51241469 0.48511478 4291548004
-0.81603032 0.51111066 0.48538762 4291548004
-0.77044779 0.51031691 0.48621631 4291548004
-1.1302489 0.52382296 0.48489451 4291548004
-1.1295803 0.52057731 0.48672238 4291548004
-1.1195157 0.52257943 0.4815253 4291548004
-1.127659 0.55708897 0.48343685 4291548004
-1.1301183 0.56701916 0.48638302 4291548004
-1.126017 0.56387347 0.48760542 4291548004
-1.1193391 0.56511003 0.48527232 4291548004
-1.1308762 0.57029647 0.48624507 4291548004
-1.1215184 0.57429993 0.48600081 4291548004
-1.1339077 0.58340544 0.48569325 4291548004
-1.1235642 0.58314675 0.4856284 4291548004
-1.1253691 0.59118497 0.48417482 4291548004
-1.1166928 0.59790158 0.48493156 4291548004
-1.1180587 0.60372144 0.48510256 4291548004
-1.111631 0.61603564 0.48410007 4291548004
-1.1138687 0.6257118 0.48369277 4291548004
-1.1162282 0.63545263 0.48549005 4291548004
-1.1185268 0.64516115 0.48618507 4291548004
-1.1208804 0.65525258 0.48617411 4291548004
-1.1198359 0.65151501 0.48260668 4291548004
-1.1230021 0.66451347 0.48537049 4291548004
-1.1252397 0.67418975 0.48496315 4291548004
-1.1274774 0.68386585 0.48455587 4291548004
-1.1307228 0.69803822 0.48329717 4291548004
-1.1293421 0.6919294 0.48421645 4291548004
-1.1325676 0.70580828 0.4839634 4291548004
-1.1350079 0.71587491 0.48585731 4291548004
-1.1373565 0.72589296 0.48609775 4291548004
-1.14034 0.73879457 0.4855547 4291548004
-1.1392213 0.7339564 0.48575839 4291548004
-1.1418319 0.74524534 0.48528323 4291548004
-1.1440696 0.75492156 0.48487595 4291548004
-1.1463071 0.76459771 0.48446861 4291548004
-1.1485448 0.77427387 0.4840613 4291548004
-1.1508986 0.78436536 0.48405042 4291548004
-1.1498538 0.78062773 0.48048297 4291548004
-1.1530917 0.79338127 0.48590583 4291548004
-1.1558135 0.80501205 0.48607847 4291548004
-1.1584239 0.81630099 0.48560321 4291548004
-1.1702156 0.82725888 0.48525974 4291548004
-1.1605209 0.82519507 0.4860566 4291548004
-1.1598244 0.8227033 0.48367828 4291548004
-1.1716442 0.83334887 0.48541933 4291548004
-1.1634624 0.83878183 0.48134607 4291548004
-1.1740803 0.84388369 0.48497584 4291548004
-1.1642083 0.84200722 0.48121029 4291548004
-1.1673746 0.85500568 0.4839741 4291548004
-1.1801442 0.86949569 0.48680934 4291548004
-1.1777036 0.86778414 0.48286825 4291548004
-1.1692394 0.86306924 0.48363468 4291548004
-1.202101 0.87547421 0.48685604 4291548004
-1.1914971 0.87480468 0.48338929 4291548004
-1.1808019 0.87268847 0.48501122 4291548004
-0.66866457 0.42929116 0.49420705 4291548004
-0.67049044 0.43673339 0.49605796 4291548004
-0.66954088 0.4328475 0.49517033 4291548004
-0.66729909 0.44535378 0.49476862 4291548004
-0.6702854 0.45799646 0.49553034 4291548004
-0.66912121 0.45329577 0.49413571 4291548004
-0.67405748 0.46400151 0.49421757 4291548004
-0.68456632 0.47675386 0.49486363 4291548004
-0.67884481 0.47270116 0.49530146 4291548004
-0.70092267 0.48789918 0.49588758 4291548004
-0.69398326 0.48458108 0.49594328 4291548004
-0.68712908 0.48151436 0.49654716 4291548004
-0.75466132 0.49815217 0.49479517 4291548004
-0.74410915 0.49859944 0.49497783 4291548004
-0.73520821 0.49826291 0.49588534 4291548004
-0.7252968 0.49657497 0.49619147 4291548004
-0.71521282 0.49648151 0.49489874 4291548004
-0.70680475 0.49331847 0.49572247 4291548004
-0.81147879 0.50809884 0.49506986 4291548004
-0.8043952 0.50860387 0.49495706 4291548004
-0.7933144 0.50813317 0.49483728 4291548004
-0.78347534 0.5071016 0.49475861 4291548004
-0.77208507 0.50774372 0.49527401 4291548004
-0.76262152 0.50588536 0.49454811 4291548004
-0.75558114 0.50212938 0.49462774 4291548004
-0.72963905 0.50003004 0.49974084 4291548004
-1.1391673 0.51543105 0.49720812 4291548004
-1.1286666 0.51503366 0.49456632 4291548004
-1.1183637 0.51478028 0.49531016 4291548004
-1.0986323 0.51840991 0.49493241 4291548004
-1.0891726 0.51753235 0.49486813 4291548004
-1.0783767 0.51532537 0.49484852 4291548004
-1.0688289 0.51406723 0.49480024 4291548004
-1.0596596 0.51444525 0.49468312 4291548004
-1.044984 0.51547569 0.49447668 4291548004
-1.0312601 0.51617396 0.49429545 4291548004
-1.0221208 0.51668233 0.49417281 4291548004
-1.0139238 0.51681733 0.49407712 4291548004
-1.004799 0.51738834 0.49395189 4291548004
-0.99568158 0.51799154 0.49382529 4291548004
-0.98759156 0.51826179 0.49528849 4291548004
-0.9744066 0.51906896 0.49509639 4291548004
-0.96503067 0.51678854 0.49442419 4291548004
-0.9523111 0.51724833 0.49338412 4291548004
-0.94392538 0.51638502 0.49420252 4291548004
-0.93562603 0.51575166 0.49569717 4291548004
-0.92731577 0.51558983 0.49469537 4291548004
-0.91505951 0.51507044 0.49498367 4291548004
-0.90315849 0.51324111 0.49540862 4291548004
-0.89489746 0.51297802 0.49591112 4291548004
-0.88403046 0.51491618 0.49567831 4291548004
-0.87566888 0.51535434 0.49497223 4291548004
-0.86477357 0.5161562 0.49538484 4291548004
-0.85349292 0.51621801 0.4956505 4291548004
-0.8449977 0.51438433 0.49463645 4291548004
-0.83469564 0.51508498 0.49505055 4291548004
-0.82438105 0.51487815 0.49533114 4291548004
-0.81668657 0.51123214 0.49464124 4291548004
-0.7708267 0.51051784 0.49307191 4291548004
-1.140035 0.52025121 0.49190396 4291548004
-1.1298603 0.52072585 0.49178985 4291548004
-0.95334053 0.52041548 0.49938446 4291548004
-0.94519639 0.52078575 0.49924952 4291548004
-1.128216 0.55738449 0.49351683 4291548004
-1.1204573 0.56760943 0.49631977 4291548004
-1.1197034 0.56435007 0.49645695 4291548004
-1.1215894 0.57278526 0.49476355 4291548004
-1.112588 0.57771313 0.49742734 4291548004
-1.1240412 0.58380836 0.49229214 4291548004
-1.1140873 0.58419615 0.49715447 4291548004
-1.1255487 0.59032708 0.49201775 4291548004
-1.1164038 0.5943628 0.49601349 4291548004
-1.1165918 0.60427135 0.49461779 4291548004
-1.1121793 0.61632645 0.49402058 4291548004
-1.1245817 0.62957692 0.49524429 4291548004
-1.114417 0.62600255 0.4936133 4291548004
-1.1169983 0.63666958 0.49552923 4291548004
-1.1200036 0.64877427 0.49927661 4291548004
-1.1189588 0.64503664 0.49570918 4291548004
-1.1213126 0.65512812 0.49569824 4291548004
-1.1235504 0.66480428 0.49529096 4291548004
-1.1257881 0.6744805 0.49488366 4291548004
-1.1377419 0.68561435 0.49704486 4291548004
-1.1278669 0.68366826 0.49355099 4291548004
-1.1405989 0.69779432 0.49736404 4291548004
-1.1335214 0.69457549 0.49408808 4291548004
-1.1293346 0.69051057 0.49089801 4291548004
-1.1328373 0.70510232 0.49293256 4291548004
-1.135518 0.71586245 0.49645275 4291548004
-1.1379048 0.72618377 0.49601829 4291548004
-1.1406265 0.73781455 0.49619094 4291548004
-1.1395373 0.73341668 0.4948861 4291548004
-1.1423801 0.74553615 0.4952037 4291548004
-1.1446176 0.75521225 0.4947964 4291548004
-1.1468554 0.76488853 0.49438912 4291548004
-1.1500217 0.77788705 0.49715289 4291548004
-1.1489769 0.77414942 0.49358544 4291548004
-1.1513307 0.78424084 0.49357456 4291548004
-1.153751 0.79401404 0.49647412 4291548004
-1.1559887 0.8036902 0.49606684 4291548004
-1.1585994 0.81497914 0.49559164 4291548004
-1.1705036 0.8262741 0.49594897 4291548004
-1.1606047 0.82382464 0.49439156 4291548004
-1.1722658 0.8340342 0.49495685 4291548004
-1.1745145 0.84375864 0.49454752 4291548004
-1.1770563 0.854451 0.49552351 4291548004
-1.1677402 0.85519958 0.49058771 4291548004
-1.1805115 0.8696906 0.49345601 4291548004
-1.1793233 0.86432052 0.49479118 4291548004
-1.1696048 0.86326307 0.49024832 4291548004
-1.2023795 0.87562191 0.49189603 4291548004
-1.1922748 0.87564623 0.49539867 4291548004
-1.1813529 0.87298071 0.49498123 4291548004
-0.6707716 0.43584672 0.50613689 4291548004
-0.66960311 0.43108371 0.50495225 4291548004
-0.67279375 0.44436723 0.50684583 4291548004
-0.6675967 0.44506931 0.50228512 4291548004
-0.67385328 0.45517537 0.50560564 4291548004
-0.66945988 0.45269281 0.50403452 4291548004
-0.6764217 0.46415579 0.50412291 4291548004
-0.6831798 0.47753492 0.50492465 4291548004
-0.67925602 0.47275287 0.50354463 4291548004
-0.70143062 0.48816869 0.50508124 4291548004
-0.69463718 0.48556751 0.5046941 4291548004
-0.68779844 0.48254606 0.50539887 4291548004
-0.75518709 0.49843106 0.50430965 4291548004
-0.74793142 0.49807933 0.50476968 4291548004
-0.73581737 0.49881572 0.50580364 4291548004
-0.7260313 0.49539316 0.50547433 4291548004
-0.71550322 0.49618223 0.50233704 4291548004
-0.70594627 0.49434686 0.50488251 4291548004
-0.8120234 0.50838768 0.50492442 4291548004
-0.8046332 0.50770229 0.50421536 4291548004
-0.79338193 0.5063827 0.50466412 4291548004
-0.78423959 0.50750703 0.50858903 4291548004
-0.77434182 0.50784576 0.50423521 4291548004
-0.76368523 0.50588721 0.50412261 4291548004
-0.75610691 0.50240833 0.50414222 4291548004
-0.72978675 0.50010836 0.50241339 4291548004
-1.1400197 0.51733649 0.50563002 4291548004
-1.1363097 0.51636225 0.50447541 4291548004
-1.1292735 0.51535547 0.50554591 4291548004
-1.1189207 0.51507568 0.50539011 4291548004
-1.0957263 0.51963031 0.50546515 4291548004
-1.0895633 0.51731515 0.50398231 4291548004
-1.0775148 0.51620382 0.50466138 4291548004
-1.0639788 0.51519674 0.50383514 4291548004
-1.0504603 0.51665407 0.50636196 4291548004
-1.0431854 0.51584655 0.50331175 4291548004
-1.0317913 0.51645571 0.50390798 4291548004
-1.0226493 0.51696265 0.50373584 4291548004
-1.0145375 0.51714289 0.50518274 4291548004
-1.0054095 0.51771224 0.5049997 4291548004
-0.9962889 0.51831365 0.50481534 4291548004
-0.98806292 0.51784325 0.50704068 4291548004
-0.97636724 0.51934004 0.50597364 4291548004
-0.96263295 0.51910996 0.50651121 4291548004
-0.95315748 0.51769727 0.5086993 4291548004
-0.94484574 0.51799113 0.50547147 4291548004
-0.93636781 0.5169239 0.50536764 4291548004
-0.92789966 0.5158996 0.50526202 4291548004
-0.91476661 0.51546544 0.50504482 4291548004
-0.90348345 0.5126493 0.50497133 4291548004
-0.89505452 0.51179385 0.50485861 4291548004
-0.88542265 0.51315117 0.50462669 4291548004
-0.87548947 0.51468992 0.5043754 4291548004
-0.86533588 0.51645452 0.50556016 4291548004
-0.85322553 0.51599556 0.5053519 4291548004
-0.84236562 0.51501167 0.50519174 4291548004
-0.83524764 0.51537782 0.50503981 4291548004
-0.8242631 0.51459563 0.50487 4291548004
-0.81620586 0.5109008 0.50488687 4291548004
-0.9633736 0.52279693 0.50404346 4291548004
-0.95359445 0.52055019 0.50397897 4291548004
-0.94544911 0.5209198 0.50382209 4291548004
-1.1285874 0.55758142 0.50023681 4291548004
-1.1210113 0.56790328 0.50634474 4291548004
-1.1105353 0.56695521 0.50686419 4291548004
-1.1098651 0.56489331 0.50295812 4291548004
-1.1221418 0.57279235 0.50613898 4291548004
-1.1145463 0.58443969 0.50546277 4291548004
-1.1167951 0.59416413 0.50505346 4291548004
-1.1190439 0.60388863 0.50464416 4291548004
-1.121253 0.61302322 0.5062561 4291548004
-1.112777 0.61735088 0.50142699 4291548004
-1.1243372 0.62660336 0.50451994 4291548004
-1.1145008 0.62463224 0.50194824 4291548004
-1.1177585 0.63767928 0.50636548 4291548004
-1.1203691 0.64896816 0.50589025 4291548004
-1.1192502 0.64412999 0.50609392 4291548004
-1.1218609 0.65541893 0.50561881 4291548004
-1.1240985 0.66509509 0.50521147 4291548004
-1.1263361 0.67477125 0.50480413 4291548004
-1.1377841 0.68492579 0.5012331 4291548004
-1.1285033 0.6840564 0.5048272 4291548004
-1.1309276 0.69453895 0.50438601 4291548004
-1.1298828 0.69080132 0.50081855 4291548004
-1.1330491 0.70379984 0.5035823 4291548004
-1.1354874 0.71383977 0.50556761 4291548004
-1.1381984 0.7253105 0.50628877 4291548004
-1.1409299 0.73708612 0.50596511 4291548004
-1.1398535 0.7328769 0.50401384 4291548004
-1.1429284 0.74582696 0.50512421 4291548004
-1.1451659 0.75550312 0.50471687 4291548004
-1.1474036 0.76517934 0.50430959 4291548004
-1.1503872 0.77808088 0.50376654 4291548004
-1.1492683 0.77324277 0.50397021 4291548004
-1.1519899 0.78487366 0.50414282 4291548004
-1.1542993 0.79430479 0.50639462 4291548004
-1.1565368 0.80398101 0.50598735 4291548004
-1.1587747 0.81365716 0.50558001 4291548004
-1.1709428 0.82622272 0.50526792 4291548004
-1.1606392 0.82172066 0.50524062 4291548004
-1.1728168 0.83432651 0.50492686 4291548004
-1.1750655 0.84405088 0.50451756 4291548004
-1.1888325 0.85837871 0.50750118 4291548004
-1.1773144 0.85377532 0.50410819 4291548004
-1.1906247 0.86647815 0.50548732 4291548004
-1.1849989 0.86492687 0.50293207 4291548004
-1.1789411 0.86127383 0.50157428 4291548004
-1.2039729 0.87934244 0.50687808 4291548004
-1.1923454 0.8741824 0.5039084 4291548004
-1.1942934 0.88129222 0.50988245 4291548004
-0.67113858 0.43541253 0.51580721 4291548004
-0.66988587 0.43049389 0.51363373 4291548004
-0.67317134 0.44370437 0.51783878 4291548004
-0.66843319 0.44627136 0.51376879 4291548004
-0.67355031 0.45612675 0.51534975 4291548004
-0.66968203 0.45159417 0.51391441 4291548004
-0.67792737 0.4647235 0.51478988 4291548004
-0.68333489 0.47658405 0.5147323 4291548004
-0.67953712 0.47186622 0.51362354 4291548004
-0.70196223 0.48663077 0.51497656 4291548004
-0.69440514 0.48256645 0.51436102 4291548004
-0.68791801 0.48140213 0.51337963 4291548004
-0.74616325 0.49941373 0.51490033 4291548004
-0.73455882 0.49702749 0.51390415 4291548004
-0.72568166 0.49509606 0.51457387 4291548004
-0.71563762 0.49398693 0.51568961 4291548004
-0.70718282 0.4934493 0.51351392 4291548004
-0.81249017 0.50863528 0.51337111 4291548004
-0.80540198 0.50913793 0.51317483 4291548004
-0.7939989 0.50868511 0.5153212 4291548004
-0.78462172 0.50770974 0.51550418 4291548004
-0.77494937 0.50816798 0.51522988 4291548004
-0.76393276 0.50735945 0.51452661 4291548004
-0.75519425 0.50324667 0.51522326 4291548004
-0.73537368 0.5002135 0.51538217 4291548004
-1.1304051 0.51812392 0.51557678 4291548004
-1.1296431 0.51482886 0.51571554 4291548004
-1.114869 0.51733923 0.516958 4291548004
-1.1096976 0.51757908 0.5151546 4291548004
-1.0967312 0.51982147 0.51255804 4291548004
-1.0849038 0.51716542 0.51462859 4291548004
-1.0751542 0.51762283 0.51276487 4291548004
-1.0614733 0.51819307 0.51408249 4291548004
-1.0509994 0.51740175 0.51389331 4291548004
-1.0414748 0.51626414 0.51374078 4291548004
-1.0324111 0.51678443 0.51512259 4291548004
-1.0232658 0.5172897 0.5148927 4291548004
-1.0150161 0.51671797 0.5171141 4291548004
-1.0057827 0.51700979 0.51609069 4291548004
-0.99666017 0.5176149 0.5158484 4291548004
-0.98825663 0.51700991 0.5150553 4291548004
-0.97178066 0.51675665 0.51569533 4291548004
-0.96211696 0.51510304 0.51515895 4291548004
-0.95303535 0.51588511 0.51490921 4291548004
-0.9448927 0.51627702 0.5147 4291548004
-0.93665767 0.51642871 0.51374143 4291548004
-0.92433929 0.5164063 0.51421261 4291548004
-0.91285104 0.51550299 0.51484144 4291548004
-0.90405923 0.51295471 0.5153904 4291548004
-0.89562738 0.51209778 0.51522636 4291548004
-0.88442403 0.51260734 0.51492977 4291548004
-0.86589819 0.51675278 0.51573545 4291548004
-0.85378361 0.51629162 0.51545238 4291548004
-0.84269315 0.51420408 0.51584637 4291548004
-0.83504862 0.51242286 0.51516575 4291548004
-0.82442838 0.51109046 0.51455611 4291548004
-0.81320304 0.51142275 0.51466328 4291548004
-0.80220842 0.51205581 0.51808196 4291548004
-1.1414428 0.520998 0.51737887 4291548004
-1.1311671 0.52141905 0.51543814 4291548004
-1.0908079 0.52009767 0.51628107 4291548004
-1.0806706 0.52076328 0.51602125 4291548004
-1.0623875 0.52146387 0.51720434 4291548004
-1.1318822 0.5679549 0.51830292 4291548004
-1.121096 0.56651855 0.51476747 4291548004
-1.132733 0.57128137 0.51984501 4291548004
-1.1232624 0.57576972 0.51493567 4291548004
-1.1254262 0.58454305 0.51735461 4291548004
-1.1152885 0.58625531 0.51204121 4291548004
-1.1271542 0.59213185 0.51647753 4291548004
-1.1174417 0.59521806 0.51332772 4291548004
-1.1203446 0.60742235 0.51447773 4291548004
-1.1192201 0.6025601 0.51468235 4291548004
-1.1218438 0.61390531 0.5142048 4291548004
-1.1240926 0.62362981 0.5137955 4291548004
-1.1254082 0.63001531 0.51019931 4291548004
-1.1180041 0.63674843 0.5159235 4291548004
-1.1206555 0.6479882 0.51652646 4291548004
-1.1195664 0.64359021 0.51522166 4291548004
-1.1224091 0.65570968 0.51553923 4291548004
-1.1246467 0.6653859 0.51513195 4291548004
-1.1268843 0.67506206 0.51472461 4291548004
-1.1300507 0.68806064 0.51748848 4291548004
-1.1290059 0.68432295 0.51392102 4291548004
-1.1313596 0.69441444 0.51391006 4291548004
-1.1337084 0.70443261 0.51415062 4291548004
-1.1360177 0.71386379 0.51640236 4291548004
-1.1385099 0.72470403 0.51564503 4291548004
-1.1412388 0.73644155 0.51545203 4291548004
-1.1399299 0.7300877 0.51903039 4291548004
-1.1434765 0.74611771 0.51504469 4291548004
-1.1457142 0.75579393 0.51463747 4291548004
-1.1479518 0.76547015 0.51423007 4291548004
-1.1505624 0.77675897 0.51375496 4291548004
-1.1494436 0.77192092 0.51395857 4291548004
-1.152488 0.78485471 0.51451784 4291548004
-1.1548476 0.7945956 0.5163151 4291548004
-1.1674628 0.80873549 0.51765001 4291548004
-1.1570851 0.80427176 0.51590782 4291548004
-1.1688701 0.81516975 0.51571548 4291548004
-1.158767 0.81223834 0.51226157 4291548004
-1.1710664 0.82486629 0.51435667 4291548004
-1.1613703 0.82210839 0.5184679 4291548004
-1.1734385 0.83501166 0.51446432 4291548004
-1.1636078 0.83178461 0.51806062 4291548004
-1.1756166 0.84434319 0.5144875 4291548004
-1.1778654 0.85406762 0.5140782 4291548004
-1.1911247 0.86702937 0.51315945 4291548004
-1.1828076 0.86413711 0.51455563 4291548004
-1.1793646 0.86055058 0.51380533 4291548004
-1.1929706 0.87487149 0.51349854 4291548004
-1.1946627 0.88148814 0.5165658 4291548004
-0.67579198 0.42741847 0.52304119 4291548004
-0.6713528 0.43451601 0.52455151 4291548004
-0.67324632 0.44242296 0.52556002 4291548004
-0.66959602 0.44878393 0.5256778 4291548004
-0.67379946 0.45520034 0.52570343 4291548004
-0.66996473 0.45119125 0.52169478 4291548004
-0.67850065 0.46502763 0.52516502 4291548004
-0.69366843 0.4768036 0.52691287 4291548004
-0.68351895 0.47504035 0.52483296 4291548004
-0.67981994 0.47127634 0.52230501 4291548004
-0.7033577 0.48649624 0.52463019 4291548004
-0.69468832 0.48159745 0.52487785 4291548004
-0.68813002 0.4807716 0.52079546 4291548004
-0.73036301 0.4976697 0.52606392 4291548004
-0.72605431 0.49356934 0.52542579 4291548004
-0.7157768 0.49270076 0.5247606 4291548004
-0.70766944 0.49189612 0.52498144 4291548004
-0.81319028 0.50900668 0.52604121 4291548004
-0.80414748 0.5095824 0.52758467 4291548004
-0.79600459 0.5084464 0.52411819 4291548004
-0.78493774 0.50693053 0.52578413 4291548004
-0.77506775 0.50666273 0.52492541 4291548004
-0.76439685 0.507411 0.52386141 4291548004
-0.75350624 0.50568467 0.52563202 4291548004
-0.74385464 0.50274938 0.52545762 4291548004
-0.73482323 0.50109541 0.52524 4291548004
-1.1411458 0.51793391 0.52600998 4291548004
-1.1307279 0.51757246 0.52490187 4291548004
-1.120602 0.51788431 0.52657813 4291548004
-1.1153312 0.51758438 0.52532136 4291548004
-1.1002889 0.51999962 0.52148497 4291548004
-1.0906103 0.5171631 0.52633733 4291548004
-1.0803831 0.5177967 0.52437752 4291548004
-1.0713751 0.51821786 0.52738601 4291548004
-1.062013 0.51847935 0.52384907 4291548004
-1.0515361 0.51768643 0.52360481 4291548004
-1.0420977 0.51659459 0.52501315 4291548004
-1.0330309 0.51711321 0.52633721 4291548004
-1.0238824 0.51761675 0.52604961 4291548004
-1.0153195 0.51620007 0.52587247 4291548004
-1.0058314 0.51523483 0.52564669 4291548004
-0.99670857 0.51584929 0.52535444 4291548004
-0.9885273 0.51608372 0.5251078 4291548004
-0.97486323 0.51480114 0.52508819 4291548004
-0.9621644 0.51337129 0.52448183 4291548004
-0.95322824 0.51511371 0.52260876 4291548004
-0.94525313 0.51559865 0.52541101 4291548004
-0.93702871 0.51545733 0.52608407 4291548004
-0.92475206 0.51598096 0.52478451 4291548004
-0.91322184 0.51509017 0.52448636 4291548004
-0.90466917 0.513533 0.52520192 4291548004
-0.8964231 0.51336479 0.52555364 4291548004
-0.88462824 0.51378769 0.52559179 4291548004
-0.87379771 0.51346856 0.5248577 4291548004
-0.86588508 0.51425803 0.5274837 4291548004
-0.85341436 0.5162757 0.52441597 4291548004
-0.84331197 0.51469582 0.52625489 4291548004
-0.83554757 0.51260626 0.52458805 4291548004
-0.82440019 0.51102871 0.52488625 4291548004
-0.81374764 0.51171166 0.52451777 4291548004
-0.80341613 0.51214302 0.52137268 4291548004
-0.79285502 0.51011723 0.52532899 4291548004
-1.1005645 0.52014571 0.52646995 4291548004
-1.0912647 0.52034003 0.52454817 4291548004
-1.0809431 0.52090782 0.52095407 4291548004
-1.0626574 0.52160704 0.52208763 4291548004
-1.1308383 0.5630883 0.52018988 4291548004
-1.1217422 0.56686139 0.52646333 4291548004
-1.1236267 0.57500976 0.52612031 4291548004
-1.1258878 0.58478791 0.52570879 4291548004
-1.12763 0.59214592 0.52623546 4291548004
-1.1185548 0.5979414 0.52319539 4291548004
-1.1206324 0.6064375 0.52516693 4291548004
-1.1195377 0.60201764 0.52385569 4291548004
-1.1223948 0.61419761 0.52417481 4291548004
-1.1246434 0.62392205 0.5237655 4291548004
-1.1267344 0.63261473 0.52506334 4291548004
-1.1191366 0.63982511 0.52448511 4291548004
-1.1303855 0.64782286 0.52719599 4291548004
-1.1258824 0.64460778 0.52611572 4291548004
-1.1198823 0.64305043 0.52434939 4291548004
-1.1317114 0.65326589 0.52835333 4291548004
-1.1230067 0.65673417 0.52294564 4291548004
-1.1251949 0.66567671 0.52505249 4291548004
-1.1274325 0.67535287 0.52464515 4291548004
-1.130416 0.68825454 0.52410215 4291548004
-1.1292974 0.68341637 0.52430576 4291548004
-1.1319079 0.69470525 0.52383053 4291548004
-1.1342064 0.70441377 0.52452552 4291548004
-1.1365659 0.7141546 0.52632284 4291548004
-1.1388036 0.72383082 0.5259155 4291548004
-1.1412958 0.734671 0.52515829 4291548004
-1.1438938 0.74577314 0.52532303 4291548004
-1.1462625 0.75608474 0.52455783 4291548004
-1.1485 0.7657609 0.52415061 4291548004
-1.1509769 0.77637255 0.52417696 4291548004
-1.1499004 0.77216327 0.52222568 4291548004
-1.1530666 0.78516173 0.52498943 4291548004
-1.1553957 0.79488641 0.52623558 4291548004
-1.1677382 0.80888164 0.52263504 4291548004
-1.1576333 0.80456257 0.5258283 4291548004
-1.1646445 0.81484485 0.52554798 4291548004
-1.1592164 0.81106186 0.52721018 4291548004
-1.1719528 0.8267585 0.52354622 4291548004
-1.1620383 0.82352394 0.52544403 4291548004
-1.174013 0.83543491 0.5242902 4291548004
-1.1639733 0.83197844 0.5246743 4291548004
-1.1762221 0.84507066 0.52348852 4291548004
-1.1667666 0.8433643 0.52750599 4291548004
-1.1784164 0.85435992 0.52404815 4291548004
-1.1918324 0.86854863 0.52045625 4291548004
-1.1809055 0.86502427 0.52407467 4291548004
-1.1798236 0.86079413 0.52211362 4291548004
-1.1935247 0.87516528 0.52352351 4291548004
-1.1829561 0.87312019 0.52741778 4291548004
-1.1952167 0.88178205 0.52659076 4291548004
-0.67191005 0.43489701 0.53422415 4291548004
-0.67423242 0.44475091 0.53470844 4291548004
-0.67677796 0.4554576 0.53569603 4291548004
-0.68198603 0.4689264 0.53589916 4291548004
-0.6789282 0.46477881 0.53519237 4291548004
-0.70080858 0.47997141 0.53172642 4291548004
-0.693964 0.47636351 0.53513765 4291548004
-0.68495029 0.47344562 0.53591645 4291548004
-0.70402485 0.48637283 0.53546429 4291548004
-0.69525528 0.48173836 0.53590912 4291548004
-0.73074007 0.49734688 0.53540492 4291548004
-0.7276203 0.49292371 0.53474718 4291548004
-0.71464241 0.49342531 0.53605527 4291548004
-0.70556921 0.49100792 0.53440958 4291548004
-0.82322925 0.50868493 0.53676599 4291548004
-0.8136571 0.50925428 0.5344879 4291548004
-0.80308455 0.50981134 0.5348587 4291548004
-0.79276574 0.50769186 0.53516924 4291548004
-0.78528428 0.5064832 0.53509617 4291548004
-0.77523768 0.50538087 0.53461158 4291548004
-0.76478338 0.5070321 0.53366983 4291548004
-0.75472772 0.505867 0.5354231 4291548004
-0.74458915 0.50406134 0.53430551 4291548004
-0.7357161 0.5018149 0.53558242 4291548004
-1.1414706 0.5173794 0.53538561 4291548004
-1.1311053 0.51676089 0.53660566 4291548004
-1.1109978 0.5196985 0.53179425 4291548004
-1.091067 0.51740545 0.53460443 4291548004
-1.0809283 0.5180859 0.53424305 4291548004
-1.0717368 0.51840967 0.53393 4291548004
-1.0625526 0.51876563 0.53361559 4291548004
-1.0521622 0.5180186 0.53493488 4291548004
-1.0427204 0.51692504 0.53628552 4291548004
-1.0335621 0.51739496 0.53594977 4291548004
-1.0244108 0.51789707 0.53561264 4291548004
-1.0158454 0.51647913 0.53539151 4291548004
-1.0063547 0.51551247 0.53511626 4291548004
-0.99700862 0.51533675 0.53402168 4291548004
-0.98612332 0.51664466 0.53644711 4291548004
-0.97564381 0.51445633 0.53343308 4291548004
-0.96247411 0.51309645 0.53220177 4291548004
-0.95347524 0.5139342 0.53339225 4291548004
-0.94587082 0.5159263 0.53658837 4291548004
-0.93723077 0.51413667 0.53661883 4291548004
-0.92317456 0.51569754 0.53603226 4291548004
-0.91368794 0.51491076 0.5349772 4291548004
-0.90524036 0.51400578 0.53471977 4291548004
-0.89260703 0.51567876 0.53467143 4291548004
-0.88201302 0.51547164 0.53625697 4291548004
-0.87451345 0.51484829 0.53299093 4291548004
-0.86646605 0.51506376 0.53560007 4291548004
-0.85536301 0.51381171 0.53524816 4291548004
-0.84326041 0.5124197 0.53615803 4291548004
-0.83584213 0.51178551 0.53462422 4291548004
-0.82562792 0.51125926 0.53427148 4291548004
-0.81413656 0.51191795 0.53155673 4291548004
-0.79339254 0.51040232 0.53505522 4291548004
-1.1425689 0.52159536 0.53775877 4291548004
-1.1013601 0.52170533 0.53538835 4291548004
-1.091813 0.52063078 0.53446865 4291548004
-0.9473021 0.52190268 0.53735417 4291548004
-1.1313877 0.5619421 0.53705877 4291548004
-1.1224385 0.5679456 0.53561854 4291548004
-1.1344907 0.57544845 0.53606975 4291548004
-1.1236615 0.57288361 0.53708363 4291548004
-1.1366929 0.58488286 0.53609318 4291548004
-1.1382085 0.59143728 0.53581721 4291548004
-1.1209373 0.60570538 0.53498995 4291548004
-1.1198554 0.60147512 0.5330289 4291548004
-1.1229455 0.61448979 0.53414482 4291548004
-1.1251945 0.62421429 0.53373551 4291548004
-1.1275351 0.63398749 0.53498781 4291548004
-1.1303754 0.64592165 0.5361492 4291548004
-1.1281904 0.64315313 0.53620756 4291548004
-1.1311913 0.65014619 0.53264397 4291548004
-1.1236215 0.65670663 0.53577662 4291548004
-1.1257432 0.66596746 0.53497297 4291548004
-1.1279807 0.67564368 0.53456569 4291548004
-1.1305914 0.68693256 0.53409046 4291548004
-1.1294726 0.68209451 0.53429413 4291548004
-1.1324561 0.69499612 0.53375107 4291548004
-1.1347851 0.70472068 0.53499722 4291548004
-1.1371142 0.71444535 0.53624332 4291548004
-1.1401889 0.72739542 0.53735369 4291548004
-1.1391126 0.72318614 0.53540242 4291548004
-1.1415894 0.73379773 0.53542876 4291548004
-1.1440817 0.74463803 0.53467149 4291548004
-1.1466796 0.75574023 0.53483623 4291548004
-1.1490482 0.76605165 0.53407115 4291548004
-1.1512858 0.77572799 0.53366387 4291548004
-1.1536454 0.7854687 0.53546113 4291548004
-1.1559439 0.79517722 0.53615606 4291548004
-1.1581817 0.80485338 0.53574878 4291548004
-1.1607921 0.81614232 0.53527361 4291548004
-1.1596733 0.81130415 0.53547722 4291548004
-1.1730623 0.82876891 0.53677136 4291548004
-1.1626569 0.82420576 0.53493422 4291548004
-1.1745222 0.83523101 0.53578633 4291548004
-1.1643388 0.83217227 0.53128797 4291548004
-1.176878 0.84541857 0.53535753 4291548004
-1.1669494 0.84346122 0.5308128 4291548004
-1.1789671 0.85465217 0.53401822 4291548004
-1.181216 0.8643766 0.53360879 4291548004
-1.1946477 0.87862062 0.53006965 4291548004
-1.1835368 0.87385482 0.53587186 4291548004
-1.1855226 0.88230211 0.53618175 4291548004
-0.6724835 0.43520111 0.54459929 4291548004
-0.67482364 0.44532067 0.54417336 4291548004
-0.67714596 0.45517471 0.54465759 4291548004
-0.68037766 0.46861282 0.5466556 4291548004
-0.67920911 0.46384972 0.54547101 4291548004
-0.70079672 0.47771731 0.54234135 4291548004
-0.69454223 0.47667021 0.54560065 4291548004
-0.68594348 0.47320279 0.54607254 4291548004
-0.70254928 0.48458752 0.54543364 4291548004
-0.69554967 0.48093522 0.54585767 4291548004
-0.73231816 0.4960497 0.54484832 4291548004
-0.72966468 0.49089557 0.54427755 4291548004
-0.7130385 0.49349964 0.54542065 4291548004
-0.70595235 0.49045876 0.54496747 4291548004
-0.85134399 0.50978374 0.54595953 4291548004
-0.84264368 0.50779927 0.54568148 4291548004
-0.83536673 0.5081141 0.54249418 4291548004
-0.82405025 0.50835502 0.54540175 4291548004
-0.81372643 0.50768489 0.54348099 4291548004
-0.80362284 0.50746536 0.54817891 4291548004
-0.79330325 0.50797695 0.54489553 4291548004
-0.78512436 0.50744742 0.54534358 4291548004
-0.77519453 0.50678825 0.54551703 4291548004
-0.76541185 0.50736547 0.5450424 4291548004
-0.75594974 0.50487453 0.54474199 4291548004
-0.74479032 0.50278461 0.54461133 4291548004
-0.73749173 0.50178897 0.54425371 4291548004
-1.1315176 0.51726866 0.54267275 4291548004
-1.0914326 0.51759928 0.5412181 4291548004
-1.0814735 0.5183751 0.54410857 4291548004
-1.0722791 0.51869744 0.54374599 4291548004
-1.0630924 0.51905197 0.54338211 4291548004
-1.0527908 0.51881367 0.54408473 4291548004
-1.0340933 0.51767677 0.54556233 4291548004
-1.0248036 0.51742345 0.54600543 4291548004
-1.0162648 0.51643002 0.54428899 4291548004
-1.006628 0.51457703 0.54526889 4291548004
-0.99757612 0.5163095 0.54105455 4291548004
-0.98386574 0.51672125 0.54518414 4291548004
-0.97512949 0.51447552 0.5442847 4291548004
-0.96375734 0.51509476 0.54907602 4291548004
-0.95466703 0.51587689 0.54864454 4291548004
-0.94634807 0.5161795 0.54522544 4291548004
-0.9375208 0.51364148 0.54499263 4291548004
-0.92551661 0.51263779 0.54454982 4291548004
-0.91352409 0.51247716 0.54331654 4291548004
-0.90545082 0.5124191 0.54670876 4291548004
-0.89437371 0.51595384 0.54506212 4291548004
-0.88241619 0.51526701 0.54557037 4291548004
-0.86717683 0.51618719 0.54486746 4291548004
-0.85616899 0.51362675 0.54452884 4291548004
-0.84337217 0.51112968 0.54468012 4291548004
-0.83616817 0.51098156 0.5452311 4291548004
-0.82920897 0.51147568 0.54773861 4291548004
-0.80093813 0.51009989 0.54373139 4291548004
-0.79385322 0.5106467 0.54339194 4291548004
-1.1331148 0.52360857 0.54511184 4291548004
-1.1227574 0.52286136 0.54711413 4291548004
-1.1125824 0.52339864 0.54669452 4291548004
-1.1023241 0.52392298 0.54461181 4291548004
-1.0927342 0.52253431 0.5443213 4291548004
-1.0823061 0.52163076 0.54561782 4291548004
-1.0533323 0.5200243 0.54943573 4291548004
-1.04407 0.52039677 0.54742569 4291548004
-1.0348159 0.52080202 0.54543084 4291548004
-0.94763899 0.52208138 0.54345095 4291548004
-1.1315734 0.56204057 0.5404188 4291548004
-1.1228888 0.5677554 0.5458312 4291548004
-1.1355408 0.57708371 0.549878 4291548004
-1.1245743 0.57510388 0.5452351 4291548004
-1.1270671 0.58577079 0.54532385 4291548004
-1.1290648 0.59362197 0.54875737 4291548004
-1.119282 0.59690517 0.54320359 4291548004
-1.1212478 0.6050576 0.54452419 4291548004
-1.1234965 0.61478209 0.54411483 4291548004
-1.1257453 0.62450653 0.54370546 4291548004
-1.1281167 0.63429594 0.54551166 4291548004
-1.1307633 0.64536893 0.54682028 4291548004
-1.1296772 0.64081138 0.5463466 4291548004
-1.1324843 0.65225399 0.54919243 4291548004
-1.1238921 0.65614259 0.54407769 4291548004
-1.1262914 0.66625834 0.5448935 4291548004
-1.1285291 0.67593449 0.54448622 4291548004
-1.1308827 0.68602604 0.54447532 4291548004
-1.129838 0.68228835 0.5409078 4291548004
-1.1330043 0.69528687 0.54367155 4291548004
-1.1353638 0.7050277 0.54546887 4291548004
-1.1376624 0.71473616 0.5461638 4291548004
-1.1405051 0.72685564 0.54648143 4291548004
-1.139416 0.72245777 0.54517663 4291548004
-1.1421376 0.7340886 0.54534924 4291548004
-1.1443753 0.74376476 0.54494202 4291548004
-1.1469859 0.75505358 0.54446679 4291548004
-1.1503423 0.76956791 0.54385591 4291548004
-1.1492234 0.76472992 0.54405946 4291548004
-1.1518342 0.77601874 0.54358435 4291548004
-1.1541433 0.78544986 0.54583609 4291548004
-1.1564921 0.79546809 0.5460766 4291548004
-1.1587298 0.80514419 0.54566932 4291548004
-1.1609674 0.81482041 0.54526198 4291548004
-1.1735214 0.82901245 0.54507971 4291548004
-1.163205 0.82449657 0.5448547 4291548004
-1.1750207 0.83549541 0.54480678 4291548004
-1.1772695 0.84521991 0.54439753 4291548004
-1.1802678 0.85818583 0.54385173 4291548004
-1.1791434 0.85332364 0.54405642 4291548004
-1.181767 0.86466885 0.54357886 4291548004
-1.1949595 0.87664133 0.54604542 4291548004
-1.1838744 0.87360728 0.54403448 4291548004
-1.206959 0.88380158 0.54706001 4291548004
-1.1965593 0.88320905 0.54744184 4291548004
-0.67305684 0.43550521 0.55497438 4291548004
-0.67502254 0.44554603 0.55427301 4291548004
-0.67645884 0.45578814 0.55404919 4291548004
-0.68076396 0.46866965 0.55435753 4291548004
-0.67686063 0.46546954 0.55671608 4291548004
-0.70144993 0.47806382 0.55416179 4291548004
-0.69517064 0.47737658 0.55517393 4291548004
-0.68538254 0.47405002 0.55522943 4291548004
-0.70287758 0.4841195 0.55447042 4291548004
-0.73280114 0.49633726 0.55452722 4291548004
-0.72491109 0.49428117 0.55717725 4291548004
-0.71433985 0.49274644 0.55430818 4291548004
-0.70448494 0.49091268 0.55493599 4291548004
-0.8516624 0.50995266 0.55172265 4291548004
-0.82257044 0.50810164 0.55427635 4291548004
-0.81418896 0.50712705 0.55572033 4291548004
-0.80400926 0.5076704 0.55517209 4291548004
-0.79384065 0.50826204 0.5546217 4291548004
-0.78366518 0.50860703 0.55511618 4291548004
-0.77321637 0.50803089 0.55440426 4291548004
-0.76593977 0.50764555 0.55459541 4291548004
-0.75613761 0.50427949 0.55570364 4291548004
-0.74518871 0.5023042 0.55515343 4291548004
-0.7389257 0.50214857 0.55393809 4291548004
