# .PCD v0.7 - Point Cloud Data file format
VERSION 0.7
FIELDS x y z rgba
SIZE 4 4 4 4
TYPE F F F U
COUNT 1 1 1 1
WIDTH 1076
HEIGHT 1
VIEWPOINT 0 0 0 1 0 0 0
POINTS 1076
DATA ascii
-1.6006585 0.40363511 -0.0082234517 4285754478
-1.5998132 0.55833852 -0.0056667617 4282795608
-1.5924888 0.56626159 -0.0025621508 4283387996
-1.5873132 0.56168479 -0.004209368 4283914087
-1.5951741 0.57078564 -0.003152383 4284309862
-1.5860896 0.57711709 -0.00058412307 4285362546
-1.5870444 0.58009905 -0.0017171939 4288454302
-1.5929933 0.606978 -0.00075188943 4289570986
-1.6258309 0.22436804 0.00072734547 4280955464
-1.6254998 0.24869923 0.0022086066 4283719010
-1.6292167 0.25471103 0.0015597477 4284572773
-1.616693 0.26141965 0.0022468138 4284902250
-1.5946685 0.27639267 0.0068461052 4285098601
-1.6016327 0.28714243 0.0059762471 4284966759
-1.5970612 0.28386489 0.0040068687 4285230188
-1.6039907 0.29381874 0.0036403527 4285098345
-1.6069627 0.30103818 0.0014999302 4285229931
-1.6150538 0.31393224 0.00021717686 4285361260
-1.6141763 0.33643079 0.00091989432 4285688171
-1.5963141 0.55889755 0.005879791 4280164409
-1.5950984 0.56449062 0.0031698456 4281547084
-1.5909134 0.57425761 0.005741036 4283718758
-1.5884367 0.5742051 0.0035158556 4283981415
-1.5845678 0.58483487 0.0049317461 4287994010
-1.590143 0.59807652 0.0026304428 4288913570
-1.5850062 0.59512401 0.0029500194 4289308585
-1.5781361 0.5954085 0.0085811513 4287401359
-1.5938444 0.60454023 0.0016637469 4289176746
-1.585055 0.60434729 0.0088873273 4286085253
-1.588293 0.61496651 0.0047042365 4287927964
-1.5842537 0.62533122 0.0076543461 4287401363
-1.5913893 0.63600087 0.0069948109 4287531153
-1.5878224 0.63179433 0.0065669487 4288190620
-1.5865724 0.64682239 0.0089282095 4287993753
-1.5904015 0.65125549 0.0094430717 4286347904
-1.5879755 0.65120405 0.0072632986 4289111718
-1.5987594 0.27541918 0.011234451 4284834658
-1.5904385 0.28690624 0.012545504 4285098345
-1.5879956 0.28474602 0.01176801 4285295210
-1.5936388 0.56740469 0.012835265 4280492602
-1.5897 0.56534672 0.010623698 4280428607
-1.5974208 0.57217425 0.013080991 4280688953
-1.5859566 0.57735854 0.012736708 4282597974
-1.5923104 0.58191383 0.015473834 4280556339
-1.5845457 0.58605886 0.015678091 4281806918
-1.5782247 0.58808368 0.013585979 4284967546
-1.5841446 0.5951696 0.01422596 4282795351
-1.5796418 0.59250975 0.011904188 4285231484
-1.5945451 0.60674655 0.015936483 4280230456
-1.5851763 0.60483825 0.014498585 4282007121
-1.5797336 0.60149091 0.019555042 4280360757
-1.6012251 0.61582679 0.015929732 4279638578
-1.5973785 0.61423808 0.013486647 4280297788
-1.5832151 0.61614466 0.012881783 4283981164
-1.5939769 0.62706476 0.015363831 4281018430
-1.5877538 0.62401694 0.011732619 4284177513
-1.5919182 0.63457054 0.015241476 4282134856
-1.5868454 0.63764077 0.015349397 4283581529
-1.5939617 0.64581853 0.016347475 4281871428
-1.5876905 0.64467013 0.011395494 4285492342
-1.6001058 0.65146124 0.018162204 4280619824
-1.5952536 0.65135837 0.013802633 4282793295
-1.584672 0.65722191 0.015319062 4284307299
-1.5916331 0.66025448 0.019634148 4280094760
-1.5834571 0.66366041 0.01668424 4283780187
-1.5767349 0.66566199 0.016005401 4285951863
-1.584088 0.6758638 0.015858937 4283977826
-1.5761049 0.67422152 0.016478634 4286148734
-1.5902762 0.68030035 0.018524723 4280491832
-1.5845803 0.68414414 0.016183766 4283583839
-1.5794594 0.68569154 0.018632215 4282597202
-1.5831994 0.69243383 0.01751346 4282795093
-1.5761563 0.69973522 0.019781264 4283190619
-1.5770721 0.70259547 0.018694442 4283914085
-1.588778 0.71704781 0.019663438 4279637803
-1.5847822 0.59666091 0.022875143 4280555571
-1.5787935 0.59855503 0.02067061 4280490802
-1.5838612 0.6030364 0.022283506 4280358963
-1.5941604 0.63740903 0.022182068 4280030770
-1.5896416 0.63383168 0.020462282 4280161583
-1.6011288 0.64713097 0.022006888 4280751156
-1.5984201 0.6436888 0.021848636 4280619571
-1.6025318 0.65151268 0.020341977 4280619824
-1.5919092 0.65737534 0.021821599 4280291627
-1.5945106 0.66175795 0.021249805 4280226859
-1.5857435 0.6680057 0.022652419 4280293167
-1.5912883 0.67601645 0.022328299 4279965235
-1.5886087 0.672611 0.022171738 4280162354
-1.5752878 0.67513281 0.021922702 4281937990
-1.5938765 0.68037665 0.021759432 4279636784
-1.5858892 0.68725568 0.023449525 4279899953
-1.5908518 0.69164419 0.02502895 4279768367
-1.5844592 0.69663692 0.02490765 4279506477
-1.5787131 0.69789553 0.023351626 4279769389
-1.5856625 0.70521259 0.024775773 4279441969
-1.5752789 0.70602888 0.022811612 4280888125
-1.5911535 0.71709824 0.021797763 4279243818
-1.5880433 0.7122975 0.022186244 4279506732
-1.575381 0.71271539 0.022440964 4281545798
-1.5644827 0.75612241 0.036220588 4279834160
-1.5586421 0.76425111 0.03751833 4280097590
-1.0514661 0.039297678 0.04984365 4286283903
-1.0511125 0.042984307 0.047042668 4286876298
-1.0504055 0.050357562 0.041440692 4287271061
-1.6211542 0.28439477 0.042269267 4286148723
-1.6118679 0.28588808 0.047905572 4283450954
-1.0524153 0.037470728 0.051938009 4285954167
-1.045109 0.038060717 0.05696578 4285888632
-1.0357907 0.039019253 0.059909131 4285757561
-1.6056429 0.28692308 0.058155973 4282660929
-1.6065516 0.2911135 0.056168489 4283977040
-1.5982769 0.29938659 0.059682161 4287069310
-1.5842221 0.30624565 0.057359025 4286150520
-1.5867624 0.31016707 0.057041712 4286743172
-1.5794518 0.32144842 0.059412878 4286677891
-1.0380856 0.039067905 0.061971083 4285559665
-1.0303855 0.042439047 0.066281237 4285954423
-1.0246414 0.043749534 0.066203952 4285889147
-1.6105702 0.28337777 0.065036498 4281017651
-1.6089628 0.28647205 0.061489306 4282792259
-1.6033622 0.29682833 0.066043518 4285425770
-1.599875 0.29631007 0.063208975 4284897115
-1.5948204 0.30724385 0.066361494 4286807680
-1.5878534 0.30554914 0.061141849 4286544507
-1.6009923 0.31046876 0.069827035 4286086524
-1.5945243 0.31033161 0.064015515 4286611330
-1.5848906 0.31848764 0.06636744 4286415234
-1.5784601 0.3183513 0.060589697 4286809478
-1.582024 0.32150295 0.061723977 4286481282
-1.5762122 0.32615089 0.068411075 4286218625
-1.5637059 0.33370039 0.067037404 4286480769
-1.0231171 0.045211837 0.073907025 4286546045
-1.0160903 0.046539385 0.07466308 4286086010
-1.0064039 0.045894202 0.07834851 4285757304
-1.6028676 0.28548717 0.073215939 4280821297
-1.6036401 0.29282895 0.074024364 4282597699
-1.5981946 0.29571271 0.077192992 4283386700
-1.6028781 0.3043206 0.075681314 4286085752
-1.5989975 0.30423835 0.07219442 4286019189
-1.6048732 0.31055105 0.073313937 4285955195
-1.5938934 0.3186785 0.074456282 4286152059
-1.5962299 0.32516 0.074751243 4286282616
-1.5820847 0.3272953 0.073001683 4286217595
-1.5922571 0.33261055 0.078713544 4286217081
-1.0118139 0.026171563 0.084451772 4286611839
-1.0036113 0.027591059 0.085080504 4286152060
-0.99955267 0.026242444 0.08530575 4286020988
-1.0206935 0.039877944 0.083342701 4286611839
-1.0166895 0.034385826 0.083380066 4287137667
-1.0054449 0.036793258 0.083591238 4286086010
-0.99614567 0.03994073 0.085080601 4285494389
-1.0215652 0.042600036 0.082308382 4286809218
-1.0116475 0.045870844 0.083150364 4286874752
-1.008046 0.043462668 0.081481956 4286151802
-0.99700886 0.04263651 0.084056273 4285428596
-1.6030653 0.28885433 0.086248979 4281083696
-1.597392 0.28718704 0.082191624 4280887091
-1.6039653 0.29467475 0.083157837 4283716180
-1.5901123 0.29091361 0.089669831 4280952116
-1.6038833 0.30468595 0.084666915 4285823094
-1.5979737 0.30748603 0.085704625 4285822839
-1.6014085 0.31422371 0.084310427 4285823354
-1.5982423 0.3136439 0.081810236 4285757561
-1.5943378 0.32561725 0.085313812 4285889144
-1.5892979 0.32336855 0.082225241 4285954938
-1.5948156 0.33266479 0.081012331 4286086009
-0.97803605 0.029018294 0.09856797 4285953140
-0.9881345 0.032760136 0.093176872 4285824379
-0.97931898 0.033024956 0.097045548 4286085754
-1.601393 0.29422882 0.097737484 4281938235
-1.5966773 0.29412887 0.093500465 4282004285
-1.5880955 0.29580534 0.099656761 4281016879
-1.6017958 0.3034656 0.091895938 4285230702
-1.5952462 0.30477104 0.097133145 4284900968
-1.5958637 0.31371659 0.094706573 4285494645
-1.6005185 0.32666621 0.090249993 4285692023
-1.5924726 0.32397902 0.096049815 4285494645
-1.5887562 0.32510123 0.095682494 4285560182
-0.96916157 0.018794075 0.10943395 4285428594
-0.96301877 0.027753107 0.10838591 4285624175
-0.97120953 0.03203705 0.10240079 4285886577
-0.96471357 0.033045992 0.10637476 4285820784
-0.95445371 0.032126069 0.10972153 4285755761
-1.5942298 0.29644534 0.10482565 4281872442
-1.5824705 0.29757726 0.10844787 4281542969
-1.5933366 0.30601269 0.10513696 4285163626
-1.5884496 0.30835596 0.10665936 4285098089
-1.593888 0.31646022 0.10617536 4285231216
-1.5896301 0.31598949 0.10260527 4285494388
-1.5946279 0.32370397 0.10198103 4285428598
-1.588604 0.32838827 0.10844998 4285034097
-0.96788502 0.014807189 0.11094886 4285164909
-0.95579749 0.029539134 0.11268711 4285690482
-0.94891214 0.02933177 0.11712325 4285426796
-0.94663578 0.033364464 0.1153579 4285361517
-0.93996853 0.032459199 0.11895067 4285229417
-1.5963569 0.28986099 0.11119321 4280688944
-1.5924048 0.29702702 0.11788518 4280756015
-1.5869063 0.29564235 0.11379721 4280820529
-1.5941559 0.30424997 0.11462796 4284176987
-1.5890322 0.30228147 0.11127452 4282925638
-1.5951402 0.31501058 0.1143391 4285361259
-1.5887868 0.31325677 0.11878891 4285361002
-1.5926243 0.32393289 0.11511473 4285164653
-1.5896714 0.32387027 0.11246142 4285296238
-0.94321835 0.032528099 0.12187058 4285493103
-0.93116212 0.037498258 0.1286881 4286084726
-0.91782725 0.036775213 0.1290957 4284507493
-0.93199003 0.04008384 0.12770566 4286150519
-0.9239971 0.041315433 0.12764408 4285294697
-0.91906279 0.040633857 0.1276295 4284836202
-1.6002848 0.29795492 0.12445376 4281020467
-1.5970039 0.2956028 0.12304046 4280691507
-1.5884819 0.29660138 0.12970683 4280493620
-1.594541 0.305971 0.12677915 4283783770
-1.5898542 0.3087388 0.12280031 4284111705
-1.5954077 0.31430525 0.12412719 4284836456
-1.5927339 0.32313979 0.12582521 4284770665
-1.5887318 0.3276833 0.12415684 4284836202
-0.92719078 0.028425969 0.13116199 4286610300
-0.91708076 0.027817016 0.13443632 4285623403
-0.92144376 0.038129348 0.13148631 4285821297
-0.91667873 0.033459626 0.13239254 4285163624
-0.90424263 0.036823571 0.13782671 4285230187
-0.92440391 0.040747091 0.13242844 4285953654
-1.5948251 0.29846564 0.13424346 4281281846
-1.6010466 0.30443546 0.13590875 4283652186
-1.5977956 0.30527467 0.13237739 4283651929
-1.6009551 0.3120012 0.13073938 4284376677
-1.5944226 0.31719467 0.13640194 4284179298
-1.5934737 0.32427129 0.13077861 4284507750
-1.5868258 0.32749414 0.13766052 4284573286
-1.5907778 0.33206952 0.13819191 4284572516
-1.5876957 0.33150515 0.13575815 4284507237
-1.5902585 0.29861182 0.14509313 4280623919
-1.586482 0.29853177 0.14170009 4280688687
-1.593322 0.30349395 0.14460742 4281875265
-1.5867505 0.30553716 0.14479393 4282006339
-1.59514 0.31499857 0.14231195 4284245092
-1.5874896 0.31403339 0.14731508 4283784285
-1.5917356 0.32535243 0.14358163 4284375908
-1.5871295 0.32694894 0.14586231 4284113249
-1.594051 0.33064172 0.14213933 4284112479
-1.5856028 0.33233738 0.14840457 4284639080
-0.87958539 0.041731216 0.1528357 4285954168
-0.86814773 0.048484493 0.15901904 4285625973
-1.5913358 0.30662894 0.15580328 4282860875
-1.5872896 0.30467167 0.1534259 4281545275
-1.583675 0.31666166 0.15718284 4284178272
-1.5917759 0.3265121 0.15795496 4283523679
-1.5860753 0.32415769 0.15433453 4284048226
-1.5905832 0.33244297 0.15287951 4283653983
-1.588093 0.33239016 0.15064207 4283785055
-0.86328322 0.047249932 0.16447873 4285295724
-0.86399645 0.050538789 0.16291885 4285624946
-1.5924822 0.29467562 0.16488501 4280687148
-1.5850027 0.29956591 0.16988696 4280884782
-1.5903732 0.30861399 0.1687064 4283321426
-1.5849307 0.3055205 0.16581833 4281345842
-1.5919108 0.31534725 0.1655836 4283784285
-1.5874079 0.31351456 0.16270557 4283585365
-1.5939856 0.32298529 0.16234271 4283392093
-1.5795135 0.33556563 0.16939728 4283261535
-1.1144397 0.62999105 0.16977081 4285164138
-0.88136774 0.70443577 0.16850282 4283854462
-0.87490827 0.70368272 0.1681519 4283788928
-0.86719114 0.70651358 0.16777112 4284183170
-0.85598707 0.70760661 0.16890292 4284313987
-0.84378022 0.70856833 0.16870373 4284116350
-0.8342728 0.70655483 0.16717418 4283722877
-0.82463628 0.70325679 0.16718189 4283591551
-0.81525511 0.70248598 0.16892691 4283985795
-0.80469441 0.70317811 0.16889992 4284312192
-0.77556878 0.70363498 0.16921797 4283787898
-0.7654857 0.70319718 0.16937874 4283459447
-1.1214898 0.716043 0.16824213 4282336855
-0.91153133 0.03907457 0.17471027 4283916387
-0.91425973 0.046462998 0.17563492 4284311915
-0.90839207 0.042963929 0.17830002 4284244838
-1.5874928 0.29961872 0.17212437 4280753453
-1.5838082 0.30555263 0.1761094 4280426539
-1.5799723 0.30450812 0.17708942 4280228393
-1.5845525 0.31497127 0.1742363 4282665293
-1.5800776 0.32968351 0.17386632 4283392862
-1.5778013 0.3276706 0.17314184 4283391836
-1.5810277 0.33265069 0.17273887 4283064156
-1.5785635 0.33259845 0.17052472 4283129949
-1.1389999 0.48810601 0.17873105 4283061087
-1.1292295 0.48728693 0.17943363 4282468953
-1.1309781 0.51855665 0.17966022 4284507749
-1.1329044 0.52253175 0.17874627 4284639335
-1.1275798 0.52840942 0.17900491 4284639078
-1.1326054 0.53556824 0.17877953 4284508263
-1.1283377 0.5307762 0.17810558 4284769894
-1.1343176 0.54030609 0.17715749 4284901224
-1.1261282 0.55271405 0.17948096 4285753965
-1.1104076 0.61739862 0.17455557 4285425772
-1.1055995 0.61567223 0.17762607 4285162345
-1.1138052 0.62443924 0.17481337 4284374886
-1.1087823 0.62062538 0.17846106 4284111204
-1.1105266 0.6378755 0.17752676 4284242786
-1.1074411 0.63555402 0.17627114 4284637800
-1.1110379 0.64239836 0.1749531 4285097063
-1.1082606 0.6444661 0.17575198 4284899940
-1.1065953 0.65459007 0.17630696 4285031266
-1.0988915 0.65652066 0.17855909 4285492074
-0.74074018 0.69985491 0.17776015 4284179576
-0.73493224 0.69952518 0.17822321 4283323238
-0.88417846 0.70537961 0.17530455 4283656059
-0.87586242 0.70349991 0.17468831 4283131257
-0.86673737 0.70330399 0.17404933 4283000697
-0.85540068 0.70570546 0.17436954 4283329147
-0.8447997 0.7062993 0.17447077 4283591290
-0.834849 0.70526773 0.17419179 4283722106
-0.82561427 0.70409131 0.17478354 4283787899
-0.81529212 0.70281816 0.17503589 4283656571
-0.80492604 0.70189387 0.17420717 4283787644
-0.79445177 0.70295435 0.17481786 4283787645
-0.78423619 0.70440179 0.17414002 4283722108
-0.77533132 0.70349425 0.17453769 4283657340
-0.76342732 0.70359302 0.17596768 4283590519
-0.7566486 0.7021144 0.17482066 4283459962
-0.74606061 0.70126504 0.17662968 4284049276
-0.73103637 0.70092577 0.17876457 4282796636
-0.72547764 0.70076418 0.17984591 4281284167
-1.1255605 0.71723938 0.1711534 4281677900
-1.1162604 0.71503246 0.1754856 4279770417
-1.1046591 0.7138207 0.17553671 4279180846
-1.09553 0.71329188 0.17814109 4278917418
-1.0871246 0.71279079 0.17836408 4279375660
-0.91135192 0.041990012 0.18165629 4284310374
-0.90368718 0.044840325 0.18685281 4284244324
-0.89451981 0.047546927 0.18631148 4284178275
-0.88705081 0.046116937 0.18693401 4284047202
-0.8876074 0.051039349 0.18413299 4284046432
-1.132604 0.4878552 0.18364321 4281613391
-1.12669 0.48744121 0.18608199 4280823620
-1.1406515 0.49824718 0.18249114 4283388760
-1.1359336 0.49499795 0.18581113 4281811280
-1.1115227 0.49045679 0.18986191 4280822853
-1.1095569 0.4904151 0.1880957 4280954951
-1.1413231 0.5023787 0.18939656 4281808964
-1.1360819 0.50430286 0.18596464 4282929494
-1.128921 0.50907075 0.18415929 4284571743
-1.1408476 0.51876587 0.18852784 4281679165
-1.1314737 0.51635563 0.18418346 4283522652
-1.128562 0.51517707 0.18620525 4283128152
-1.1336328 0.52477306 0.18621834 4283060304
-1.1295929 0.52453417 0.18344736 4284179555
-1.1327108 0.53656334 0.18727632 4282534986
-1.1277949 0.53393239 0.1845579 4283719775
-1.1317687 0.54070508 0.18363225 4283785567
-1.1264982 0.5463112 0.18412279 4284572002
-1.1300268 0.55279672 0.18298382 4285096549
-1.1277769 0.55181658 0.18158911 4285227878
-1.0961016 0.5878799 0.18889958 4282201923
-1.1033022 0.59788513 0.18496692 4282006858
-1.0981952 0.59385854 0.18679143 4282464840
-1.1051966 0.60442537 0.184567 4281414466
-1.1105285 0.61726367 0.18231478 4281019971
-1.1065816 0.61426479 0.18375142 4281741637
-1.1119895 0.62182629 0.18058112 4282137937
-1.1076638 0.6263324 0.1848328 4280229431
-1.1105946 0.6322369 0.18137945 4281676868
-1.1062598 0.6363219 0.18525809 4281083451
-0.72568595 0.63735002 0.18681824 4285821296
-1.1056466 0.64484489 0.18467952 4281215548
-0.72663039 0.6438306 0.18818258 4286149749
-1.1028248 0.65266526 0.18171771 4282992977
-1.0977626 0.65633804 0.18672109 4281151039
-0.72491479 0.65235507 0.18920007 4285820527
-1.0963519 0.66229039 0.18747857 4281018685
-0.70181233 0.67984676 0.18893489 4280032537
-0.71104461 0.68845409 0.18552893 4288518047
-0.70586383 0.68491864 0.18673363 4285687914
-0.74382979 0.69969326 0.18824685 4282341484
-0.73535216 0.69936419 0.1828087 4282667876
-0.72607809 0.69893509 0.18507871 4279969075
-0.71421087 0.69531035 0.18518995 4281417288
-0.70985425 0.6908775 0.18885982 4285493625
-1.0957355 0.7086181 0.18902861 4280095267
-1.0702798 0.70978886 0.18919323 4279831319
-0.89489621 0.70732498 0.18848209 4280560712
-0.88436353 0.70675647 0.18554923 4281942623
-0.87505555 0.70556277 0.18432219 4281878369
-0.86490834 0.70477587 0.18629074 4281090393
-0.85620761 0.70451409 0.18478779 4281421411
-0.8451069 0.70586926 0.18497375 4281750888
-0.83535314 0.70550853 0.18456751 4282210410
-0.82611835 0.7047714 0.18536796 4282340970
-0.81667995 0.70456618 0.18581685 4282866544
-0.80404383 0.70514858 0.1862205 4282932334
-0.79471511 0.70330817 0.18489778 4282802293
-0.7847991 0.70284361 0.185517 4282802035
-0.77473307 0.70292312 0.18556155 4283000183
-0.76530647 0.70262498 0.18471597 4283131767
-0.7548334 0.70205998 0.18474382 4283065460
-0.7448017 0.70168912 0.18492028 4283196023
-0.73708951 0.70115745 0.18602313 4283130741
-0.72368026 0.70046121 0.18672296 4279903283
-0.71862328 0.70035094 0.18520465 4279770668
-1.1116669 0.71662676 0.18495943 4279832618
-1.1065868 0.7144298 0.18557867 4279701028
-1.0953318 0.71220225 0.18556367 4279373600
-1.0849992 0.71139276 0.18397726 4279044639
-1.0770085 0.71073556 0.18714027 4279371805
-1.0654556 0.71171004 0.18727738 4279962145
-1.1141212 0.72309142 0.18714823 4280031538
-1.1095243 0.72014588 0.18630673 4279898926
-1.1256754 0.80656463 0.18981524 4279768113
-1.1404033 0.81819236 0.18788323 4279572786
-1.1323438 0.81631404 0.18934777 4279702830
-1.1288376 0.81090194 0.1897857 4279900213
-1.1270237 0.83558655 0.18917181 4279638319
-1.1304517 0.84717923 0.18954642 4279573039
-1.1261032 0.84181052 0.18918645 4279375916
-1.1358881 0.8550334 0.18922861 4279834414
-0.89357376 0.046746295 0.19246474 4284243554
-0.8846904 0.046882752 0.19484606 4284112481
-0.87643832 0.04683356 0.19557701 4283916387
-0.86743402 0.046588495 0.19894432 4283982948
-0.8455956 0.052632153 0.19913468 4283060563
-0.7392419 0.48636779 0.1989762 4284376434
-1.1343337 0.49669075 0.19530563 4281215557
-1.1254404 0.49262798 0.19430329 4280886850
-1.114242 0.49452007 0.19641459 4280952386
-1.0985619 0.49918172 0.19937593 4280624190
-1.0852275 0.49965563 0.19847566 4281346118
-1.0790493 0.49966112 0.19787164 4281608007
-0.96046478 0.49840906 0.19931316 4281675592
-0.95451289 0.49797314 0.19795273 4281609285
-0.94983274 0.49865299 0.19700299 4281345597
-0.73957425 0.49465108 0.19975764 4285690749
-1.1658534 0.50063336 0.19482 4284041552
-1.1523875 0.50617129 0.19694595 4284305751
-1.1465112 0.50320035 0.19357963 4281545533
-1.1366104 0.50451267 0.1942419 4281282623
-1.0014486 0.50814134 0.19843428 4281345592
-0.99813837 0.50548106 0.19720121 4281082677
-0.9624356 0.50172949 0.19887996 4281149501
-1.1611698 0.51821744 0.19686398 4286874499
-1.152691 0.51901698 0.199169 4287006856
-1.1450195 0.51430184 0.19533668 4284310628
-1.1326813 0.51629353 0.19180574 4281351486
-1.1625199 0.52140874 0.19595106 4287202435
-1.1522391 0.52372849 0.19558929 4287334021
-1.1436938 0.52263904 0.19759181 4286546048
-1.1363852 0.52632105 0.19449218 4283979607
-1.1418509 0.53272545 0.19819894 4287464323
-1.1359125 0.53410268 0.19366688 4284044629
-1.1285322 0.54160154 0.19821501 4285557353
-1.0903035 0.56585407 0.19841388 4284636511
-1.089573 0.56357276 0.19928071 4284177758
-1.0823293 0.57865703 0.19915679 4285031015
-1.0924855 0.5859074 0.19448322 4280425513
-1.0876836 0.58470476 0.19673923 4282004284
-1.0929911 0.59462863 0.19437253 4280030250
-1.087611 0.59830421 0.19983968 4280095537
-1.0967728 0.60386324 0.19323602 4279769135
-1.0883036 0.60427356 0.19897842 4280031283
-1.0947596 0.61540538 0.19543552 4280096305
-1.0886023 0.61282003 0.19854486 4279441456
-0.72620237 0.61765999 0.19707061 4286282875
-1.0949824 0.62551695 0.19473352 4279833907
-0.73057222 0.62381023 0.1989404 4286086013
-0.7275483 0.62531298 0.19474567 4286347640
-1.0936984 0.63526684 0.19566473 4280226866
-0.73002368 0.63658273 0.19841953 4286020223
-0.72619087 0.63460934 0.19388942 4286215799
-1.0935252 0.64542049 0.19548307 4280161072
-0.72655767 0.64548367 0.19531888 4286215286
-1.0938864 0.65580267 0.19550993 4279636786
-0.72630292 0.65525943 0.19556904 4285821555
-1.0959908 0.66446328 0.19563985 4279964468
-1.0888979 0.66961187 0.19389273 4279504686
-0.72497362 0.66385972 0.19615892 4285756018
-0.71716249 0.66768378 0.19449416 4285952366
-1.0934362 0.67404962 0.19673151 4280226866
-1.0845431 0.67618459 0.19413736 4280162869
-1.0736408 0.67648447 0.1942423 4282202443
-1.0677621 0.67519331 0.19352356 4284043608
-1.0551722 0.67934811 0.19586714 4285030497
-0.71414936 0.67380178 0.19859043 4285493612
-0.7048378 0.67846489 0.19699223 4285098599
-0.69895631 0.67858374 0.19775841 4285558124
-1.0928854 0.68391484 0.19830982 4280292656
-1.0870172 0.68415022 0.1962595 4280031538
-1.0700787 0.68629277 0.19724642 4280952892
-1.0642116 0.68499935 0.19653964 4282663762
-1.0545681 0.68566 0.19711903 4283913564
-1.0434713 0.68663102 0.19792704 4285162852
-1.036162 0.68494952 0.19893618 4285294435
-1.0288985 0.68259287 0.19993719 4285556580
-0.71118236 0.68562329 0.19700536 4285427823
-0.70714742 0.68433905 0.19494157 4285558639
-0.69982606 0.6813001 0.19672628 4284967528
-1.0949786 0.69589937 0.1968877 4279833645
-1.0748345 0.69776821 0.19891174 4279899946
-1.0615889 0.69435376 0.19919464 4280951861
-1.0545021 0.69491649 0.19839442 4282072136
-1.0455271 0.6952216 0.19798745 4282796368
-1.0350815 0.69571793 0.19783723 4283649102
-1.0260814 0.69532436 0.1987842 4284174414
-0.74271721 0.69933885 0.19049291 4282275434
-0.7321431 0.69858974 0.19797277 4279515207
-0.72477245 0.69820958 0.19578381 4280496190
-0.71422863 0.69613367 0.19495338 4281218365
-0.70876551 0.6924997 0.19660115 4284309861
-1.1024833 0.70557851 0.19723089 4279703085
-1.0972033 0.70472956 0.19298223 4279767592
-1.0825747 0.7059769 0.19390805 4279898144
-1.0736214 0.70627397 0.19460607 4279701274
-1.0651839 0.70681727 0.19560926 4279635222
-1.0563928 0.70509475 0.19616398 4279963932
-1.0453436 0.70486683 0.19648576 4280097318
-1.0361936 0.70344687 0.1956002 4280292898
-0.89347911 0.70586938 0.1942137 4279573300
-0.88545132 0.70521289 0.19498667 4279441972
-0.87491137 0.70553249 0.19540305 4279901240
-0.86585891 0.7052213 0.19493535 4280033338
-0.8563863 0.70499831 0.19596244 4279837496
-0.84538519 0.70629859 0.19487263 4279707965
-0.83432734 0.70539844 0.19538477 4279970109
-0.8250739 0.70447457 0.19509479 4280035646
-0.8145256 0.70452541 0.19565682 4280299075
-0.80528039 0.7042926 0.19488706 4281087307
-0.79497391 0.70383793 0.19531335 4280957520
-0.78517324 0.7034483 0.19503993 4281156181
-0.77477115 0.70204312 0.19432735 4280828758
-0.76478511 0.70187396 0.19593105 4280762195
-0.75608826 0.70198083 0.19437081 4281486689
-0.74607772 0.7015987 0.19492672 4281551455
-0.7342791 0.70074981 0.19558464 4280435027
-0.72817171 0.70032209 0.19318333 4280962394
-0.71882612 0.70011789 0.19083713 4280295470
-1.1126037 0.71807712 0.19470717 4280096560
-1.1051236 0.71332788 0.19443147 4279964716
-1.0991689 0.71086848 0.19064961 4280291108
-1.0813493 0.71028763 0.19140323 4279569179
-1.0570025 0.71116316 0.19126676 4280355867
-1.0487065 0.71076405 0.19152103 4280160290
-1.1122785 0.72494 0.19617908 4280227375
-1.1099538 0.72506964 0.19472595 4280096047
-1.1035697 0.73511195 0.19751641 4280555570
-1.0990863 0.73836857 0.19627374 4280424241
-1.1034383 0.744358 0.19738245 4280620336
-1.0991788 0.74462748 0.19592974 4280555313
-1.1054531 0.75583166 0.19790383 4280227635
-1.11186 0.76588023 0.19699663 4280228403
-1.1085148 0.76307666 0.19582793 4279900980
-1.113816 0.7740292 0.19582334 4279965745
-1.1142956 0.7833789 0.19753389 4280162100
-1.1116894 0.79735017 0.19836007 4279965487
-1.1086562 0.79318959 0.1983884 4280489523
-1.1246624 0.80684131 0.19488855 4279834419
-1.1156733 0.80277336 0.196839 4279900465
-1.1329604 0.81454784 0.1910979 4279899696
-1.1256702 0.81449145 0.19684954 4280226863
-1.1302712 0.82881969 0.19416551 4280424241
-1.1271611 0.82523632 0.19524735 4280031024
-1.1318277 0.83555162 0.1958705 4280031278
-1.1283445 0.83397162 0.19475757 4280031279
-1.1316359 0.84562343 0.19771959 4279638829
-1.1272495 0.84431505 0.1937317 4279573038
-1.1340709 0.85432738 0.19352411 4279900206
-1.1281809 0.85504687 0.19578937 4279703595
-1.1314226 0.86329025 0.19536619 4280555829
-1.1287599 0.86464894 0.19742109 4280555572
-0.88199073 0.048292339 0.20201571 4284243297
-0.87387657 0.046166006 0.20510873 4284572517
-0.86498034 0.04497486 0.20504507 4284243808
-0.85445547 0.04710361 0.20489143 4284178015
-0.8496533 0.046758506 0.20225197 4284178018
-0.8365038 0.048784304 0.20702754 4283586393
-0.82766551 0.047816709 0.20868063 4283652440
-0.84195989 0.052493583 0.20497908 4283783259
-0.83589834 0.052174132 0.20549181 4283323478
-0.82835448 0.050994001 0.20717368 4282995025
-0.76510251 0.15775689 0.20918241 4286281592
-0.76163858 0.16708623 0.20881881 4286216055
-0.76228344 0.17006001 0.20740837 4285887345
-0.75473428 0.17970097 0.20915315 4285690737
-0.76055121 0.18643551 0.20993529 4286412919
-0.75691009 0.18268542 0.20913284 4285492331
-0.74983251 0.24473394 0.20933372 4285493617
-0.75064981 0.25695974 0.20941919 4285956993
-0.74782109 0.25368482 0.20903885 4285823866
-0.74861443 0.26585701 0.20913845 4286612096
-0.74064606 0.48777834 0.205356 4281744725
-0.73628688 0.4864035 0.20462705 4282336090
-0.72551823 0.48609188 0.20830207 4280951621
-1.1267983 0.49548218 0.20042633 4281215047
-1.100503 0.49922284 0.20111997 4281281352
-1.0829015 0.49974278 0.20133275 4281542214
-0.96320641 0.49846718 0.20177647 4281544268
-0.95433402 0.49872234 0.20442401 4281478476
-0.93550575 0.49838361 0.20262462 4281412682
-0.92354321 0.49678713 0.20411633 4281412430
-0.91934538 0.49648535 0.20489652 4281281613
-0.87178397 0.49802002 0.20932934 4281281870
-0.86297029 0.49747926 0.20920649 4280889166
-0.8299157 0.49015886 0.20511986 4280823118
-0.81368911 0.49470162 0.20841816 4281019471
-0.80679667 0.49379215 0.20878497 4281675858
-0.79941577 0.49447584 0.2091466 4281149511
-0.74097782 0.4926281 0.20723593 4282008668
-0.73847932 0.49548241 0.20462374 4283785071
-1.1508597 0.50717533 0.20545788 4282661955
-1.1466583 0.50629944 0.20221187 4283186248
-1.1333342 0.50351471 0.20358345 4281411391
-1.1241016 0.50281429 0.20664063 4281148480
-1.115519 0.50269377 0.2079576 4281148482
-1.1080453 0.5017041 0.20633614 4280951875
-1.096797 0.50214422 0.20484328 4281148740
-1.0836117 0.50401032 0.20636812 4281149509
-1.0743397 0.50307131 0.2063968 4281410628
-1.0680847 0.5031839 0.20363498 4281934407
-1.057101 0.506239 0.20818396 4281868616
-1.0030553 0.50609624 0.20418254 4281543493
-0.99408305 0.50457239 0.20355827 4281412678
-0.98328656 0.50765437 0.2063704 4281347142
-0.97436792 0.50595462 0.20630087 4281215814
-0.96541947 0.50276935 0.20414364 4281215814
-0.95627302 0.50144464 0.20856273 4281281612
-0.93558246 0.50299096 0.20652573 4281412681
-0.92661047 0.50074452 0.20614524 4281478219
-0.91971052 0.50114542 0.2071359 4281346637
-0.87608534 0.50333059 0.20968539 4280626253
-0.73478401 0.50594389 0.2054296 4284639605
-1.1532974 0.51784956 0.20050728 4286875270
-1.1356601 0.51035511 0.20758635 4281607218
-1.1281949 0.51079702 0.20954533 4281541689
-1.0058779 0.51169348 0.20764729 4281542981
-0.81534374 0.51803362 0.20784834 4285826189
-0.73486978 0.51471281 0.20544748 4284836980
-0.72959381 0.51606536 0.20195036 4285889917
-0.81758147 0.52734399 0.20967846 4286942351
-0.73480171 0.52340853 0.20600004 4285231223
-1.1434311 0.53158849 0.20040552 4287399044
-0.73338753 0.5344063 0.20776786 4284573558
-1.0914676 0.56361294 0.20098302 4283190093
-1.0872808 0.56601667 0.20677479 4282926663
-1.0842953 0.57480198 0.20450468 4282794309
-1.0834326 0.58471996 0.20550658 4280096548
-1.0799674 0.58023787 0.2050079 4282203200
-1.0844338 0.59458399 0.20493761 4279767854
-0.73488575 0.59727591 0.20833394 4280428856
-1.0856817 0.60528845 0.20521012 4280030514
-0.73192304 0.60500586 0.20853133 4280297528
-0.72837025 0.60621274 0.20540097 4284771445
-1.0901076 0.61173695 0.20064676 4279243821
-1.0870073 0.6158458 0.20563619 4279703601
-0.73059034 0.61532027 0.20610382 4282338393
-0.728306 0.61418998 0.2042523 4284311919
-1.0910335 0.62499917 0.20618097 4280685875
-1.088243 0.62486428 0.2050039 4280489524
-0.73068696 0.62491447 0.20460123 4283256926
-0.72922468 0.62528253 0.20490867 4283586145
-1.0913481 0.63643152 0.20634106 4280489008
-1.0882477 0.63455904 0.2050447 4280554801
-0.73109549 0.63562763 0.20608631 4280824130
-0.72880644 0.63482165 0.20386696 4283915370
-1.0914637 0.64448255 0.20405769 4280357937
-1.0881977 0.64548641 0.20452456 4280357681
-0.73157173 0.64323717 0.20678018 4280428857
-0.7282362 0.64678502 0.20391223 4282995806
-1.0913486 0.65421081 0.20345958 4280029745
-1.0885316 0.65565181 0.20630199 4280095280
-0.73028022 0.65339607 0.20775798 4279835438
-0.72838736 0.65566593 0.20446002 4282009938
-1.092906 0.66576529 0.20570596 4280357680
-1.0881089 0.66176903 0.20600295 4280095281
-0.8142029 0.66880155 0.2067344 4290097072
-0.73029703 0.66055018 0.20523156 4280035900
-0.72694969 0.66472775 0.2057384 4281678665
-1.0946065 0.67519033 0.20492683 4280226863
-1.0348637 0.67856622 0.20053066 4285688426
-1.0238762 0.67821479 0.20207527 4285556840
-1.0147758 0.67752421 0.20405871 4285689710
-0.80983168 0.67616224 0.20988949 4290294451
-0.72264373 0.67325187 0.20728013 4281940037
-0.71707368 0.6778726 0.20474125 4284244579
-0.70926005 0.67961127 0.20042592 4285165675
-1.0946796 0.68533236 0.20497812 4280358447
-1.023842 0.68382102 0.2007947 4285753446
-0.72040814 0.68165278 0.20922892 4279837736
-0.71459645 0.68540472 0.20518124 4284573286
-0.70966542 0.68870312 0.20073047 4286018163
-1.1004696 0.69629556 0.20415254 4280096559
-1.0975276 0.69447237 0.20536971 4280096558
-1.072021 0.69476557 0.20088167 4279900205
-1.0633811 0.69439173 0.20080493 4280623156
-1.0582287 0.69837844 0.20098023 4280688688
-1.0145169 0.69110519 0.20225099 4285818208
-0.83333969 0.69919765 0.20679127 4279705635
-0.82436633 0.69859761 0.20807405 4281084716
-0.81544304 0.69733614 0.20863776 4281805610
-0.80652827 0.69570076 0.20764685 4281871661
-0.79435134 0.69699359 0.20795782 4281282355
-0.78587359 0.69634187 0.20821604 4281282869
-0.77982265 0.69890571 0.2080238 4281283900
-0.76292276 0.69852704 0.20883325 4281676351
-0.75658238 0.69668287 0.20795682 4281414204
-0.74471074 0.69728941 0.20784441 4281217854
-0.73353666 0.69783282 0.20668192 4280563523
-0.72403592 0.69657415 0.20591064 4280693569
-0.71595621 0.69313753 0.20349149 4283454555
-1.1031475 0.70555735 0.2023863 4280293169
-1.0972292 0.70492172 0.20723744 4280096304
-1.0604981 0.7026968 0.20014864 4279898912
-1.0598097 0.7005471 0.20096548 4280162086
-0.88692701 0.70237178 0.20066211 4280097061
-0.8754589 0.702829 0.20228252 4280294183
-0.86466455 0.70335191 0.20175305 4280228906
-0.85651028 0.70291233 0.20125681 4279901483
-0.84308702 0.70401919 0.20262127 4280164399
-0.83518839 0.70338207 0.20264244 4280296241
-0.82576787 0.70219195 0.20391376 4280099888
-0.8156395 0.70183551 0.2039784 4280362547
-0.80470276 0.70220876 0.20331889 4280494393
-0.79491633 0.70206988 0.20390929 4280691775
-0.7851035 0.70231277 0.20356233 4280627012
-0.77528644 0.7030862 0.2044324 4280889925
-0.76555216 0.70207286 0.20505694 4281087304
-0.75371999 0.70228416 0.20359425 4280826702
-0.74472398 0.70167065 0.20360577 4280564043
-0.73610908 0.70048791 0.20273528 4280498506
-1.1107754 0.71949387 0.20300315 4280555827
-1.103515 0.71517092 0.20461762 4280490034
-1.099408 0.71067053 0.20762882 4280490548
-1.1121742 0.72386235 0.20134322 4280489777
-1.106391 0.72658008 0.20708659 4280293169
-1.1106784 0.73466539 0.20178562 4280554800
-1.1077225 0.7348085 0.20439006 4280489777
-1.1110791 0.74559826 0.20613909 4280489777
-1.1077366 0.74434626 0.2046857 4280555313
-1.1124364 0.75615114 0.2049522 4280162350
-1.1078296 0.75341952 0.20263913 4280227632
-1.1134768 0.76540321 0.20419158 4280097584
-1.1098102 0.76864171 0.20460655 4280097841
-1.1138786 0.77471447 0.20507726 4279703599
-1.1144698 0.78452039 0.20490362 4279768880
-1.1208434 0.79754424 0.20658474 4279899186
-1.1153587 0.79446471 0.20404677 4279703599
-1.1091173 0.79023302 0.20079671 4280292916
-1.1218264 0.8065604 0.20394036 4280227376
-1.1183394 0.80351329 0.20578359 4279899697
-1.1222019 0.81603295 0.20446567 4280031277
-1.1191601 0.81387281 0.20767632 4280031277
-1.1245154 0.82462364 0.20327605 4280031791
-1.1172009 0.82502466 0.20972845 4280425264
-1.1303028 0.83029115 0.20076331 4280096813
-1.1252737 0.83569682 0.20530386 4280162605
-1.1190003 0.83416963 0.20900239 4280162862
-1.1256478 0.84557903 0.20588844 4280097582
-1.1311576 0.85697508 0.20476826 4280425517
-1.1277413 0.85519046 0.20462833 4280294445
-1.1322566 0.86435437 0.20534562 4280229680
-1.1291913 0.86174297 0.20480733 4280359983
-0.87134814 0.042912271 0.21405782 4285361005
-0.86486149 0.044444833 0.21416126 4285032554
-0.85459334 0.046810243 0.21497135 4284573287
-0.84426504 0.046767086 0.21471168 4284506980
-0.8334114 0.046620749 0.21472913 4284639079
-0.82980025 0.046280649 0.21166174 4284769380
-0.84363061 0.052508101 0.21102917 4284702818
-0.83430487 0.051120155 0.21252 4284637797
-0.76962024 0.11740538 0.21624561 4285821039
-0.76670766 0.12352073 0.21703433 4285294695
-0.76159954 0.13342734 0.21856111 4285163109
-0.75752819 0.14638121 0.21717183 4285558381
-0.76480579 0.15521133 0.21364595 4286216569
-0.75728798 0.15495265 0.21753936 4285888117
-0.76399446 0.16676617 0.21118432 4286478969
-0.75805527 0.16303337 0.21734235 4285822838
-0.76193881 0.17838456 0.21661395 4286086007
-0.75832814 0.17592064 0.21497475 4285953909
-0.7613337 0.18355756 0.21560745 4285954677
-0.75882661 0.18590878 0.21325022 4286085237
-0.75621784 0.19525096 0.21573713 4286151545
-0.77250171 0.20217773 0.21933034 4282468681
-0.76406038 0.20612134 0.21653271 4285559154
-0.75359493 0.20593795 0.21768506 4286151803
-0.7489658 0.2085153 0.21626216 4285954937
-0.77016014 0.21022478 0.21934173 4283125841
-0.76340717 0.21466145 0.21775365 4286018164
-0.75563794 0.21534507 0.21560143 4286282619
-0.7496652 0.21069956 0.21543221 4285954938
-0.75433475 0.22531958 0.21591274 4285690996
-0.75266635 0.23510949 0.21587078 4285822583
-0.74996257 0.23397942 0.21668197 4285428594
-0.75378978 0.24333993 0.21496248 4286743170
-0.74879205 0.2414847 0.21056834 4285230445
-0.75292963 0.25360736 0.21491641 4286480513
-0.74864703 0.25209486 0.21086153 4286087294
-0.75103319 0.2643438 0.21452281 4286678147
-0.74898803 0.26499122 0.21384057 4286416003
-0.75097203 0.27624956 0.21942033 4285825152
-0.74818778 0.27482399 0.21531792 4286678403
-0.75090802 0.28154516 0.21580197 4286547847
-0.74799961 0.28234634 0.21476828 4286612868
-0.66078925 0.46880025 0.21929465 4279638074
-0.67451006 0.47983825 0.21835166 4280820554
-0.66139859 0.47070324 0.21857157 4279507256
-0.65981811 0.47066975 0.21715154 4280297796
-0.72189462 0.48882475 0.21474668 4280952395
-0.714742 0.48923159 0.21516684 4281017675
-0.70595187 0.4893226 0.21648817 4281083468
-0.696931 0.48563787 0.21677783 4280952140
-0.68297285 0.4874194 0.21896414 4280754759
-0.67696536 0.48406285 0.21775281 4280755273
-0.66448575 0.48270917 0.21936515 4280164419
-0.95738769 0.49929884 0.21102259 4281281358
-0.91226006 0.49972627 0.2126267 4280887113
-0.90794075 0.49993145 0.21232539 4281216335
-0.88138574 0.49822357 0.21795641 4280756813
-0.87571567 0.49879578 0.21428609 4280953421
-0.86576468 0.49812046 0.21384537 4281346892
-0.85435796 0.4980734 0.21568456 4281281613
-0.84606212 0.49734381 0.21761872 4281084751
-0.83524323 0.49843752 0.21802205 4280755786
-0.82271814 0.49866185 0.21500497 4280822093
-0.8149277 0.49644703 0.21485373 4281019473
-0.80529732 0.49389541 0.21449281 4281215822
-0.79319751 0.49537215 0.21539329 4281347661
-0.78510976 0.49660102 0.21541072 4281151822
-0.77414781 0.49807775 0.21893333 4281019981
-0.76390839 0.49910721 0.21897282 4281021011
-0.75832027 0.49935839 0.21975005 4280559946
-0.74128473 0.49570781 0.21632943 4280690249
-0.73626208 0.49366945 0.21570179 4280690248
-0.72539103 0.49126816 0.21553962 4280821322
-0.70228922 0.49022266 0.21858652 4281017933
-0.69908458 0.49015471 0.21570715 4280886861
-1.1463132 0.50764972 0.21005894 4281214513
-1.1342659 0.50859457 0.21656717 4281280059
-1.1243141 0.50809938 0.21487071 4281213756
-1.1161655 0.50585401 0.21458602 4281082431
-1.1043901 0.50710851 0.21599476 4281082688
-1.0941154 0.50758725 0.21536461 4281016897
-1.0863136 0.5072794 0.21492887 4281214020
-1.0758015 0.50730699 0.21521288 4281148741
-1.0641429 0.50773591 0.2153687 4281410885
-1.0547132 0.50669897 0.21543691 4281410628
-1.0441962 0.50726622 0.21410608 4281344837
-1.0335925 0.50723398 0.21715415 4281083205
-1.0215113 0.50745666 0.21720664 4280821574
-1.0137726 0.50644547 0.21622165 4280821317
-1.0052612 0.50674736 0.21343262 4281346632
-0.99474621 0.50640368 0.21540344 4281477961
-0.98459691 0.50640273 0.21512614 4281281353
-0.9748674 0.50531858 0.21474248 4281215560
-0.96668857 0.50311548 0.21411189 4281281097
-0.95690697 0.50318879 0.21552707 4281215305
-0.94501841 0.50274444 0.21404433 4281281871
-0.93598586 0.5027613 0.21485826 4280887882
-0.92441368 0.50375414 0.21471374 4281018953
-0.91565675 0.50315696 0.21568818 4281018698
-0.90428025 0.501176 0.21637759 4281149258
-0.89844197 0.50033993 0.21093903 4281280844
-0.88533878 0.50305581 0.21657197 4281084236
-0.87777644 0.50211382 0.21204689 4280887886
-0.8650741 0.50035387 0.21876784 4281346378
-0.85367888 0.50021708 0.21248987 4280560974
-0.84203386 0.50088429 0.21501702 4280887887
-0.83673877 0.50127882 0.21495759 4281150801
-0.82410091 0.50280672 0.21489164 4281150285
-0.8190003 0.50824201 0.21021001 4282601065
-0.77014887 0.50085968 0.21744426 4281085002
-0.76486111 0.50208259 0.21784224 4280692556
-0.75349885 0.50511396 0.21903834 4280954444
-0.7438004 0.5045315 0.21662407 4280689729
-0.73856086 0.50281179 0.21299787 4280754749
-1.1348017 0.51083702 0.21403712 4281476920
-1.0257204 0.51045179 0.21450022 4280887110
-1.0134761 0.51290524 0.21376806 4280756294
-1.0089219 0.51087326 0.21097711 4281215559
-0.81601453 0.51581222 0.21348095 4282404453
-0.74333894 0.51383245 0.21556519 4280755256
-0.73840809 0.51264495 0.21229477 4280293934
-0.82062286 0.52640224 0.21308762 4285563527
-0.81561762 0.52436393 0.2124086 4285825418
-0.73463726 0.5243541 0.21231884 4281282110
-0.73371887 0.53364909 0.21203443 4280692032
-0.75501424 0.54388261 0.21854579 4287601309
-0.74653023 0.54582977 0.21654737 4287532692
-0.73539788 0.54321009 0.21318616 4280032305
-0.74707758 0.55057508 0.21889567 4288520356
-1.085629 0.56580377 0.21534373 4286543993
-1.0823736 0.57510859 0.21443141 4285493364
-1.079751 0.57360953 0.21682452 4286348157
-1.0820668 0.58430868 0.2132574 4281217084
-1.0783063 0.58653152 0.21696858 4280428083
-1.0813406 0.59642768 0.21389529 4279570733
-1.0787417 0.59449416 0.21633203 4279702058
-0.74122542 0.59860474 0.21149951 4282993489
-0.73872054 0.597296 0.21009308 4280427827
-1.0834512 0.60594088 0.21459153 4279964978
-1.0797563 0.60307634 0.21742749 4279768114
-0.73629344 0.60658717 0.21279445 4282861908
-1.0860891 0.61504394 0.2135431 4279769135
-0.73319042 0.6142776 0.21271412 4281022274
-1.0904598 0.62209117 0.21063562 4280424244
-1.0854923 0.62494892 0.21576959 4280358451
-0.73299599 0.62473875 0.21514079 4279506464
-0.72721821 0.62525856 0.21416892 4279638826
-1.0906051 0.63418019 0.21019967 4280686899
-1.0844659 0.63526535 0.21658947 4280293427
-0.73411018 0.63561398 0.21256806 4279048740
-0.72900504 0.63352019 0.21164151 4279245611
-1.0868835 0.64549607 0.2148789 4279702829
-0.73260731 0.64405835 0.21086854 4279900968
-1.091728 0.65709013 0.2137112 4280292655
-1.0878208 0.65405166 0.21533675 4279965230
-0.73160946 0.65512002 0.21267109 4279835172
-0.728854 0.65757293 0.21196224 4279835434
-1.0927829 0.66474718 0.21488033 4280489008
-0.75472552 0.66692382 0.21266253 4290296759
-0.73222435 0.66277099 0.21305582 4279637275
-0.72775382 0.66723859 0.2122346 4279768868
-1.0945979 0.67429358 0.21484348 4280096048
-0.80591649 0.67789489 0.21119769 4289899693
-0.79528832 0.6794278 0.21255934 4290031279
-0.78223717 0.67907029 0.21298042 4290097329
-0.77217996 0.67743981 0.21547812 4289704368
-0.76317656 0.67818558 0.21582878 4290295473
-0.7549988 0.67535484 0.21493985 4290097326
-0.74569231 0.67632443 0.2141213 4290228139
-0.73372817 0.67465317 0.21437681 4289177252
-0.7242195 0.67652714 0.21313003 4282203716
-1.0924565 0.68450809 0.21474862 4280161838
-1.0896171 0.68382758 0.21673703 4280030766
-0.81309187 0.6858449 0.2124026 4289437081
-0.80638999 0.68609011 0.21141142 4288385420
-0.79582959 0.68524861 0.2118278 4288189071
-0.78446621 0.68566215 0.21232781 4287859336
-0.77219373 0.68538535 0.21498671 4288714904
-0.76457846 0.68536907 0.21507002 4288714643
-0.75560629 0.68546337 0.21331243 4287331961
-0.74348766 0.68575168 0.21380846 4286674290
-0.73644066 0.68435943 0.2138368 4287527801
-0.72440511 0.68595159 0.21376631 4284439129
-0.71891761 0.68494236 0.21170346 4280295715
-1.1012678 0.69542855 0.21050276 4280686386
-1.0958418 0.69516867 0.21517265 4280424496
-1.0892241 0.69082731 0.21923092 4280096558
-0.82315058 0.69723487 0.21090364 4282069550
-0.81585318 0.69343323 0.21133347 4285619543
-0.80549943 0.69142532 0.21079117 4285489754
-0.79481232 0.69291019 0.21061966 4283254594
-0.78713655 0.6919626 0.21105312 4283255365
-0.77231371 0.69606477 0.21275428 4282399288
-0.76529485 0.69424021 0.21197699 4282136376
-0.75543565 0.69152987 0.2109789 4281610029
-0.74499953 0.69272757 0.21138075 4280493606
-0.73282176 0.69347775 0.21204326 4280821548
-0.72516143 0.6924445 0.21175461 4280362795
-1.1003438 0.70840275 0.21378651 4280227635
-1.0968142 0.70461428 0.21547346 4280293170
-0.77053231 0.70042485 0.21061592 4281611068
-1.1016632 0.71580881 0.21442108 4280293940
-1.0988733 0.71432698 0.21507524 4280293683
-1.1038135 0.72482997 0.21508823 4280031281
-1.1045333 0.73566717 0.21439855 4280096304
-1.1122243 0.74686629 0.21011102 4280621106
-1.1050396 0.74480218 0.21501826 4280423984
-1.1107141 0.75597125 0.21205947 4280489777
-1.1077485 0.75402182 0.21633168 4280555057
-1.1115611 0.76620734 0.2138875 4279900977
-1.1086087 0.76394373 0.21632569 4280293681
-1.1118877 0.77503318 0.21423036 4279704112
-1.1089805 0.7760182 0.21778563 4279638065
-1.1123821 0.78649789 0.21517955 4280162351
-1.1088755 0.78228778 0.21801013 4280096560
-1.1200962 0.79841542 0.21287522 4280161330
-1.1158912 0.79458797 0.21445546 4280293425
-1.1207765 0.80054045 0.21206777 4280096051
-1.116263 0.80498117 0.21491428 4280030768
-1.1155525 0.81547844 0.21603379 4280162603
-1.1210616 0.8254447 0.21674891 4279902000
-1.1174325 0.82494855 0.21377014 4280228911
-1.1223129 0.83586431 0.21508577 4280490799
-1.1192442 0.83366472 0.21586294 4280491056
-1.1239122 0.84565061 0.21500577 4280293933
-1.1198624 0.84397703 0.21075474 4280162347
-1.1301705 0.85459346 0.21302652 4280163375
-1.1264193 0.85414064 0.21515328 4280163631
-1.1313646 0.86465096 0.21113446 4280229681
-1.1277758 0.86440098 0.21583705 4279835694
-1.1260146 0.87075788 0.21952967 4280294707
-0.84967756 0.046681758 0.22046511 4284246632
-0.77776283 0.098134927 0.22756213 4283323218
-0.78090155 0.1049989 0.22581282 4282929232
-0.77368164 0.1050203 0.22601087 4283586647
-0.76975656 0.10612811 0.22395098 4284573285
-0.77498418 0.11075106 0.22561473 4283389268
-0.76503134 0.11644144 0.22570498 4284573028
-0.76263762 0.12640056 0.22693169 4284309857
-0.7594862 0.12864946 0.22362317 4285689968
-0.78279048 0.13975728 0.22986861 4283523170
-0.76135325 0.13667288 0.22673589 4283980891
-0.75854445 0.13630964 0.2266838 4284638564
-0.76366794 0.14463253 0.22576526 4284113505
-0.75845498 0.14370798 0.22162874 4285427310
-0.76379746 0.15497923 0.22497457 4283982433
-0.75753349 0.15606269 0.22004049 4285888375
-0.77190685 0.16079125 0.2299809 4283520599
-0.76311129 0.16203186 0.22565374 4283850334
-0.75730574 0.16894656 0.2277995 4283323732
-0.76244158 0.17563725 0.22798948 4282797131
-0.7559405 0.17611341 0.22456989 4285428080
-0.77376157 0.18904084 0.22931135 4284379249
-0.76381475 0.18321712 0.225767 4283521366
-0.78025991 0.19795434 0.22925065 4284773237
-0.77526224 0.19607109 0.22679488 4283786855
-0.76490968 0.1948131 0.22490959 4283127637
-0.75903958 0.19250287 0.22110482 4286151544
-0.78132081 0.20126775 0.22799166 4284772980
-0.77545941 0.20333442 0.22415935 4283391325
-0.76753968 0.20317475 0.22168915 4282863953
-0.75418508 0.20551708 0.22115198 4286283132
-0.77390432 0.21222155 0.2244401 4283850334
-0.76794952 0.21791461 0.22349173 4282929232
-0.7551074 0.21081494 0.22032197 4286217340
-0.76302654 0.22749506 0.22540693 4282798417
-0.75863004 0.22616778 0.22228625 4284046686
-0.76405692 0.23268843 0.22369593 4282667088
-0.75589079 0.23482223 0.22152631 4284836202
-0.76263171 0.24285384 0.22227997 4282008644
-0.75553519 0.24581102 0.22137281 4284902252
-0.76112235 0.25075188 0.22315104 4282007360
-0.7560581 0.25587094 0.22264563 4283192404
-0.74888009 0.25987351 0.22096138 4286282364
-0.75421965 0.26501405 0.22237939 4283390040
-0.74956584 0.26201501 0.22014767 4286480513
-0.75169778 0.27485242 0.22102197 4283982949
-0.74960589 0.271983 0.22104149 4285825152
-0.7514919 0.2844739 0.22192426 4283128923
-0.748734 0.2818827 0.22114891 4284772465
-0.65787107 0.40898469 0.22660878 4286216323
-0.66087985 0.41644472 0.2258517 4282069065
-0.65839362 0.41515759 0.2267838 4281674560
-0.66059482 0.42683408 0.22918887 4279508540
-0.65759045 0.42477974 0.22596711 4279901495
-0.65692568 0.43389362 0.22579701 4280163646
-0.65459859 0.44466496 0.22554986 4280555581
-0.66059887 0.45840073 0.22611175 4280097596
-0.65603042 0.45588896 0.22627589 4280293435
-0.66113627 0.46802402 0.22164488 4279769660
-0.65752769 0.46506229 0.22447403 4279900731
-0.68085384 0.47997275 0.22405148 4280886601
-0.6784749 0.47992232 0.22191402 4281017417
-0.66245186 0.47652885 0.22727783 4280163647
-0.65860277 0.47517741 0.22510496 4279769660
-0.72202504 0.48965031 0.22489196 4281082699
-0.71399528 0.48901147 0.22403884 4280755274
-0.70451653 0.48631945 0.22419798 4280559177
-0.69656116 0.48355052 0.22443977 4280493640
-0.68396294 0.48443156 0.2247166 4280493383
-0.6761958 0.48096699 0.22383434 4280820295
-0.66490173 0.48197639 0.22527607 4280491587
-0.88016063 0.49992326 0.22325388 4281475398
-0.87842172 0.49988639 0.22169149 4281083208
-0.85286903 0.49840602 0.22203782 4281216076
-0.84540939 0.49826479 0.22363809 4280888142
-0.83167952 0.49813378 0.22253157 4280756043
-0.82483548 0.49843022 0.22342756 4280952908
-0.81545919 0.49903312 0.22475743 4281215310
-0.80371106 0.49785411 0.22473653 4281281358
-0.79556239 0.49585831 0.22435117 4281346636
-0.78553224 0.49514815 0.2256252 4281084748
-0.77463698 0.49576071 0.22450331 4280822861
-0.76483029 0.49655861 0.2245508 4281084236
-0.75457817 0.49817449 0.22482581 4280952906
-0.74516189 0.49699333 0.22435704 4280755273
-0.73526359 0.49511659 0.2252388 4280952138
