# .PCD v0.7 - Point Cloud Data file format
VERSION 0.7
FIELDS x y z rgba
SIZE 4 4 4 4
TYPE F F F U
COUNT 1 1 1 1
WIDTH 1083
HEIGHT 1
VIEWPOINT 0 0 0 1 0 0 0
POINTS 1083
DATA ascii
-0.78014618 0.49983537 0.25384647 4278821823
-0.7741909 0.4990257 0.25195366 4278821823
-0.76366854 0.49936053 0.25415349 4278821823
-0.75609028 0.49886656 0.25301799 4278821823
-0.74401736 0.49851331 0.25372738 4278821823
-0.73466289 0.4980537 0.25434989 4278821823
-0.72473943 0.49698496 0.25522336 4278821823
-0.71487427 0.49579501 0.25524434 4278821823
-0.7048769 0.4940621 0.25532717 4278821823
-0.69493264 0.49226618 0.25505495 4278821823
-0.68572551 0.49115163 0.2550908 4278821823
-0.67767584 0.49094009 0.25725746 4278821823
-1.1119832 0.50924718 0.25436226 4278821823
-1.1039004 0.50931293 0.25723663 4278821823
-1.0927787 0.50941402 0.25518411 4278821823
-1.084029 0.50940979 0.25434381 4278821823
-1.0761573 0.50938892 0.25420424 4278821823
-1.0661709 0.50885957 0.25290909 4278821823
-1.0516438 0.50923181 0.2572974 4278821823
-1.0488478 0.50969267 0.25134367 4278821823
-1.038362 0.50886047 0.25246668 4278821823
-1.0229446 0.50963527 0.25522086 4278821823
-1.015704 0.509817 0.25367308 4278821823
-1.008122 0.50987518 0.2521483 4278821823
-0.9943279 0.50937378 0.25369072 4278821823
-0.98560286 0.50863564 0.25188321 4278821823
-0.97339904 0.5076707 0.2542626 4278821823
-0.96515572 0.50805867 0.25312716 4278821823
-0.95400316 0.50835568 0.25139824 4278821823
-0.94327962 0.50855201 0.25487733 4278821823
-0.93563414 0.50814134 0.25609565 4278821823
-0.9235642 0.50816166 0.2543956 4278821823
-0.91575956 0.508838 0.25406301 4278821823
-0.90421736 0.50855482 0.25357255 4278821823
-0.8956939 0.50790638 0.25502169 4278821823
-0.88478839 0.50754058 0.2537514 4278821823
-0.87468559 0.50746644 0.25410324 4278821823
-0.86587751 0.50604528 0.25458002 4278821823
-0.85424566 0.50585282 0.25510457 4278821823
-0.84479785 0.50414914 0.25502491 4278821823
-0.83500421 0.50443006 0.25495291 4278821823
-0.82426417 0.50514853 0.25536439 4278821823
-0.81498498 0.50492913 0.25475737 4278821823
-0.80545425 0.50436246 0.25481135 4278821823
-0.79504335 0.50457942 0.25506935 4278821823
-0.78518587 0.5037815 0.25512609 4278821823
-0.77519655 0.50231445 0.25513405 4278821823
-0.76560938 0.50157011 0.25538939 4278821823
-0.75491321 0.50167602 0.25544053 4278821823
-0.74582827 0.50151795 0.25643903 4278821823
-0.73359162 0.50040114 0.25615361 4278821823
-0.72723544 0.50081766 0.25645787 4278821823
-1.1245047 0.51226509 0.25645882 4278821823
-1.114827 0.51393712 0.25506675 4278821823
-1.1053598 0.51339161 0.25479636 4278821823
-1.0950205 0.51242799 0.25461081 4278821823
-1.0844641 0.51262218 0.25440559 4278821823
-1.073898 0.51364529 0.25561076 4278821823
-1.0642773 0.51324916 0.25487596 4278821823
-1.0553496 0.51333535 0.25525901 4278821823
-1.0449827 0.51338565 0.25531808 4278821823
-1.0354596 0.51326382 0.25504982 4278821823
-1.0250862 0.51348078 0.25543708 4278821823
-1.0148562 0.5130688 0.25567436 4278821823
-1.0052323 0.51286352 0.25497857 4278821823
-0.9957279 0.5122844 0.25551 4278821823
-0.9860093 0.5121904 0.25483316 4278821823
-0.97422236 0.51315475 0.25622422 4278821823
-0.96429825 0.51331818 0.25510275 4278821823
-0.95511806 0.51262307 0.25516626 4278821823
-0.94488895 0.51210958 0.2557416 4278821823
-0.93517226 0.51186889 0.25446951 4278821823
-0.92532045 0.51154077 0.25521252 4278821823
-0.91644198 0.51140451 0.25453913 4278821823
-0.90495878 0.51243019 0.25596708 4278821823
-0.89503521 0.51078653 0.25663987 4278821823
-0.88391322 0.51161373 0.25753069 4278821823
-0.87712455 0.51142967 0.25834817 4278821823
-0.86510825 0.51164621 0.2591396 4278821823
-0.85430586 0.51048583 0.25851777 4278821823
-0.84290242 0.51084489 0.2574859 4278821823
-0.83514798 0.51096004 0.25531894 4278821823
-0.82871652 0.51168036 0.2575807 4278821823
-0.81485921 0.51003808 0.25812963 4278821823
-0.80746013 0.51021814 0.25730169 4278821823
-1.1070815 0.52186173 0.25992891 4278821823
-1.0617425 0.52117771 0.25981975 4278821823
-1.0807366 0.56668603 0.25177348 4278821823
-1.0740346 0.56840175 0.25630403 4278821823
-1.0673356 0.56906104 0.2555725 4278821823
-1.0729487 0.57567012 0.25592571 4278821823
-1.0690877 0.57691753 0.25482118 4278821823
-1.0810035 0.58636022 0.25776809 4278821823
-1.0724429 0.5841583 0.25517631 4278821823
-1.0684005 0.58620387 0.25505897 4278821823
-1.0807372 0.59598488 0.25407821 4278821823
-1.0732534 0.59497339 0.25614947 4278821823
-1.0680488 0.59402597 0.25293541 4278821823
-1.0815206 0.60280907 0.25474057 4278821823
-1.0737392 0.6052295 0.25494522 4278821823
-1.0689052 0.60224092 0.25437105 4278821823
-1.0748144 0.61548442 0.25536031 4278821823
-1.0692763 0.61226505 0.25475931 4278821823
-1.0810837 0.62602144 0.25643969 4278821823
-1.0770783 0.62442416 0.25436893 4278821823
-1.0815313 0.63536346 0.25500193 4278821823
-1.0777011 0.63461339 0.25526264 4278821823
-1.0831355 0.64404583 0.25466555 4278821823
-1.0748016 0.64575273 0.25489917 4278821823
-1.0830024 0.65665543 0.25514579 4278821823
-1.0768121 0.65513462 0.25488335 4278821823
-1.0822988 0.66560638 0.25511676 4278821823
-1.0783401 0.66437578 0.25473133 4278821823
-1.0834429 0.67485583 0.25525799 4278821823
-1.0788218 0.67335564 0.25371388 4278821823
-1.0903847 0.6858871 0.25729993 4278821823
-1.0855223 0.68475837 0.25487229 4278821823
-1.079003 0.68365151 0.25474736 4278821823
-1.091217 0.69628799 0.25518414 4278821823
-1.0871307 0.69440472 0.25507563 4278821823
-1.092056 0.7053653 0.25523549 4278821823
-1.0884824 0.70307839 0.25281367 4278821823
-1.0937583 0.71492374 0.25471148 4278821823
-1.0890781 0.71289372 0.25364411 4278821823
-1.1009562 0.72564125 0.25037318 4278821823
-1.0949355 0.72531205 0.25526804 4278821823
-1.0891961 0.72374851 0.25846982 4278821823
-1.1011124 0.73714101 0.25603276 4278821823
-1.0959805 0.73491609 0.25521162 4278821823
-1.1017551 0.7460447 0.2551598 4278821823
-1.0970451 0.74461824 0.25511974 4278821823
-1.1025283 0.75581855 0.25484496 4278821823
-1.0987568 0.75407022 0.25519794 4278821823
-1.1103106 0.76869297 0.25331184 4278821823
-1.1047251 0.76481092 0.25473732 4278821823
-1.0996395 0.76555306 0.25969747 4278821823
-1.1108583 0.77377105 0.25640935 4278821823
-1.1062098 0.77467239 0.25468078 4278821823
-1.1111002 0.78603375 0.25467515 4278821823
-1.1075473 0.78419113 0.25432101 4278821823
-1.1201868 0.79890776 0.25453505 4278821823
-1.113719 0.79520005 0.25451738 4278821823
-1.1090349 0.79464698 0.25848973 4278821823
-1.1216447 0.80737358 0.25534943 4278821823
-1.1152383 0.80497891 0.25552422 4278821823
-1.1095569 0.80501086 0.25898501 4278821823
-1.1218934 0.81555432 0.25565359 4278821823
-1.1173763 0.81430459 0.25479764 4278821823
-1.1227599 0.82538807 0.25470078 4278821823
-1.1171889 0.82489777 0.25495616 4278821823
-1.1226199 0.83524501 0.2555179 4278821823
-1.1188627 0.8345409 0.2544463 4278821823
-1.1233411 0.84545374 0.25495666 4278821823
-1.1189783 0.84224439 0.25396931 4278821823
-1.1311638 0.85834819 0.2544575 4278821823
-1.1261866 0.8545953 0.25465167 4278821823
-1.1199834 0.85203701 0.25205034 4278821823
-1.1410152 0.86836958 0.25934979 4278821823
-1.1333414 0.86585832 0.2552681 4278821823
-1.1289278 0.86244553 0.25351647 4278821823
-1.1422851 0.87586451 0.25526199 4278821823
-1.1367631 0.8728193 0.25481659 4278821823
-1.1454104 0.88170707 0.25490311 4278821823
-0.64818126 0.38983965 0.26016709 4278821823
-0.66059947 0.39704046 0.26131439 4278821823
-0.65473533 0.39419037 0.26356247 4278821823
-0.64562732 0.39742312 0.26514122 4278821823
-0.63995832 0.39356279 0.26117951 4278821823
-0.65720403 0.40501532 0.26494727 4278821823
-0.64457262 0.40532154 0.26475024 4278821823
-0.63655615 0.40610009 0.26858005 4278821823
-0.65468389 0.41487804 0.26508662 4278821823
-0.64306235 0.4151333 0.26540965 4278821823
-0.65190536 0.42400712 0.26432058 4278821823
-0.64338058 0.42534837 0.26505423 4278821823
-0.63914788 0.42946249 0.26335996 4278821823
-0.65113574 0.43183732 0.26223817 4278821823
-0.64230812 0.43475622 0.26412249 4278821823
-0.63907278 0.43601817 0.26639408 4278821823
-0.6509738 0.44610503 0.26565021 4278821823
-0.64242911 0.44656834 0.26417005 4278821823
-0.63871372 0.44503397 0.26541096 4278821823
-0.65221918 0.45480287 0.2654388 4278821823
-0.64142954 0.45608631 0.26542494 4278821823
-0.63907999 0.45351753 0.26527783 4278821823
-0.65254432 0.46724486 0.26558527 4278821823
-0.64480603 0.46510303 0.2649751 4278821823
-0.63925886 0.46361083 0.26569718 4278821823
-0.67105359 0.47880903 0.26879531 4278821823
-0.66206038 0.47808614 0.26446366 4278821823
-0.65575343 0.47465906 0.26509705 4278821823
-0.64794576 0.47175485 0.26517183 4278821823
-0.69388008 0.48916334 0.26304549 4278821823
-0.68327111 0.48895854 0.26477265 4278821823
-0.67461479 0.48662084 0.26516092 4278821823
-0.66586572 0.48282018 0.26482671 4278821823
-0.65916789 0.48119563 0.26888567 4278821823
-0.76181847 0.49924344 0.26212871 4278821823
-0.75523365 0.49824134 0.26324046 4278821823
-0.74497908 0.49894825 0.26489735 4278821823
-0.73400319 0.49859563 0.26555765 4278821823
-0.72480333 0.49771029 0.2648108 4278821823
-0.71472508 0.49634233 0.26491559 4278821823
-0.70521963 0.49419063 0.26488718 4278821823
-0.69522154 0.49244136 0.26493412 4278821823
-0.68574071 0.49120483 0.26535028 4278821823
-0.67663169 0.49104238 0.26431885 4278821823
-0.66943753 0.49148893 0.26340264 4278821823
-1.1135112 0.50908059 0.26272431 4278821823
-1.1066215 0.509076 0.26396936 4278821823
-1.0970262 0.5096072 0.26317823 4278821823
-1.0843991 0.50985646 0.26049566 4278821823
-1.0738194 0.50973344 0.26204106 4278821823
-1.0546288 0.50889826 0.26606041 4278821823
-1.047509 0.50897282 0.26418465 4278821823
-1.0303115 0.50970131 0.26093644 4278821823
-1.0263683 0.50989968 0.26454392 4278821823
-0.99404776 0.50894892 0.26057765 4278821823
-0.9650929 0.50949091 0.26089978 4278821823
-0.95744109 0.5098201 0.26277465 4278821823
-0.94287944 0.5085026 0.26273644 4278821823
-0.93527478 0.50848716 0.26227847 4278821823
-0.92340118 0.50904149 0.26459464 4278821823
-0.91525561 0.50890356 0.26416388 4278821823
-0.90549421 0.50859052 0.26335475 4278821823
-0.89378148 0.50841433 0.2646099 4278821823
-0.88516456 0.50794226 0.26428568 4278821823
-0.87370878 0.50763518 0.26489398 4278821823
-0.86517447 0.50655562 0.26415831 4278821823
-0.85586989 0.50688303 0.26372904 4278821823
-0.84482348 0.50641894 0.26460618 4278821823
-0.83377123 0.50763094 0.2648221 4278821823
-0.8250742 0.50725889 0.26473159 4278821823
-0.81514865 0.50585139 0.26467395 4278821823
-0.80498827 0.50525296 0.26525819 4278821823
-0.79482305 0.50512421 0.26511073 4278821823
-0.78513843 0.50458616 0.26441145 4278821823
-0.77527839 0.50366056 0.26500958 4278821823
-0.76533651 0.50299579 0.26498079 4278821823
-0.75549257 0.502065 0.26558179 4278821823
-0.74545687 0.50177526 0.26515177 4278821823
-0.73616385 0.50165683 0.26481539 4278821823
-0.72693145 0.50176346 0.26614422 4278821823
-1.1217134 0.51378912 0.26163352 4278821823
-1.1132954 0.51533717 0.26550803 4278821823
-1.1057464 0.51460582 0.26623717 4278821823
-1.0953352 0.513569 0.26589108 4278821823
-1.0865682 0.51351297 0.26494855 4278821823
-1.0751717 0.51296484 0.26539496 4278821823
-1.0648354 0.51301974 0.26503778 4278821823
-1.0548408 0.51418847 0.26520771 4278821823
-1.0452161 0.51565295 0.26449859 4278821823
-1.0346162 0.5145753 0.26536411 4278821823
-1.0255504 0.51452672 0.26441544 4278821823
-1.0149934 0.51471633 0.26507264 4278821823
-1.0050294 0.51504791 0.26512903 4278821823
-0.99624491 0.51388663 0.26470849 4278821823
-0.98521388 0.51346147 0.26533133 4278821823
-0.97523272 0.51382852 0.26520628 4278821823
-0.96513319 0.51341641 0.26502281 4278821823
-0.9542672 0.51397431 0.26566455 4278821823
-0.94585639 0.51298636 0.26455808 4278821823
-0.93479848 0.5133937 0.26587972 4278821823
-0.92458725 0.51299959 0.26640922 4278821823
-0.91428858 0.51253837 0.26683748 4278821823
-0.90469247 0.51248902 0.26506752 4278821823
-0.89589846 0.51204646 0.26533377 4278821823
-0.88561279 0.51233768 0.26522991 4278821823
-0.8773483 0.51168609 0.26562694 4278821823
-0.86556548 0.51159424 0.26478159 4278821823
-0.85534436 0.51166451 0.26659155 4278821823
-0.84623992 0.51182568 0.26558512 4278821823
-0.83434534 0.51269603 0.26673853 4278821823
-0.82523549 0.51050591 0.26728594 4278821823
-0.8142519 0.51056409 0.26651761 4278821823
-0.80683249 0.51137638 0.26753923 4278821823
-0.7462877 0.51030463 0.26943189 4278821823
-1.1148039 0.52382374 0.26565853 4278821823
-1.1059467 0.5234195 0.26600847 4278821823
-1.0845428 0.5211103 0.26807895 4278821823
-1.0729256 0.52161354 0.26595488 4278821823
-1.0655142 0.52181959 0.26542214 4278821823
-1.0552585 0.52209073 0.26613662 4278821823
-1.0456707 0.52099913 0.26643318 4278821823
-1.0380788 0.52032828 0.26675689 4278821823
-1.0820688 0.56741714 0.26832682 4278821823
-1.0756435 0.56805581 0.26357806 4278821823
-1.0677546 0.56884664 0.26474321 4278821823
-1.0805758 0.57655197 0.26397109 4278821823
-1.0739248 0.57601112 0.26617643 4278821823
-1.0682389 0.57501858 0.26351085 4278821823
-1.0807168 0.58322132 0.26528507 4278821823
-1.0737057 0.58537269 0.26491264 4278821823
-1.068714 0.58529705 0.26419917 4278821823
-1.080395 0.59085333 0.26175025 4278821823
-1.0736375 0.59510767 0.26547912 4278821823
-1.0683932 0.59509647 0.26516309 4278821823
-1.0805025 0.60489476 0.26587629 4278821823
-1.074007 0.6050601 0.26468882 4278821823
-1.0690856 0.60406101 0.26672423 4278821823
-1.0814621 0.6160841 0.26450098 4278821823
-1.0752399 0.61495429 0.26492 4278821823
-1.0694985 0.6137948 0.26561481 4278821823
-1.0815233 0.62431115 0.26376635 4278821823
-1.0765283 0.62479734 0.26432514 4278821823
-1.0812391 0.63443369 0.26315856 4278821823
-1.0765597 0.63531935 0.26591119 4278821823
-1.0808859 0.64378828 0.26423118 4278821823
-1.0766277 0.64551485 0.26529568 4278821823
-1.0814884 0.65617311 0.2656633 4278821823
-1.0781189 0.65436739 0.26475242 4278821823
-1.0827353 0.66533363 0.26467347 4278821823
-1.0791377 0.66314459 0.26549333 4278821823
-1.0906497 0.67770624 0.26576889 4278821823
-1.0847119 0.67543513 0.2648719 4278821823
-1.0787926 0.67426902 0.26434749 4278821823
-1.0904471 0.68811077 0.26498535 4278821823
-1.0867512 0.68500173 0.26480019 4278821823
-1.0911181 0.69554627 0.26466909 4278821823
-1.0874248 0.69487906 0.26584715 4278821823
-1.0916266 0.7065655 0.26409674 4278821823
-1.0879914 0.70398432 0.26454753 4278821823
-1.0925503 0.7148512 0.26487797 4278821823
-1.0887382 0.71446192 0.26698792 4278821823
-1.0939268 0.72550219 0.26476318 4278821823
-1.0889364 0.72254926 0.26728413 4278821823
-1.100686 0.73928356 0.26948225 4278821823
-1.0957607 0.73525912 0.2653926 4278821823
-1.1013414 0.74628246 0.26678282 4278821823
-1.0976907 0.74475187 0.26412302 4278821823
-1.102558 0.75371176 0.2648944 4278821823
-1.0984023 0.75332052 0.26443022 4278821823
-1.1102241 0.76776224 0.26518908 4278821823
-1.1051457 0.76498008 0.2652109 4278821823
-1.0984918 0.76191694 0.26339221 4278821823
-1.1109515 0.77613944 0.26424804 4278821823
-1.1074698 0.77490199 0.26470566 4278821823
-1.1117835 0.78464025 0.26459777 4278821823
-1.1083837 0.78386509 0.26378065 4278821823
-1.1134533 0.79500896 0.26453486 4278821823
-1.1076324 0.79464507 0.26530063 4278821823
-1.1208723 0.80582285 0.26304585 4278821823
-1.1145751 0.80517888 0.2653214 4278821823
-1.1084969 0.80080396 0.26611823 4278821823
-1.1211175 0.81399089 0.26238367 4278821823
-1.1164867 0.8150844 0.26579934 4278821823
-1.1215613 0.82608342 0.265477 4278821823
-1.1182572 0.82423139 0.26575962 4278821823
-1.1226152 0.83543122 0.2655386 4278821823
-1.1190786 0.83271557 0.26546642 4278821823
-1.1308687 0.84784818 0.26890451 4278821823
-1.1249496 0.84506202 0.2647942 4278821823
-1.1187747 0.8417083 0.26364177 4278821823
-1.1318811 0.85684705 0.26350877 4278821823
-1.1267447 0.85458231 0.26429319 4278821823
-1.1410862 0.8685056 0.26817507 4278821823
-1.1342359 0.86579424 0.26485386 4278821823
-1.1279155 0.86196589 0.26662585 4278821823
-1.1425765 0.87590355 0.26514801 4278821823
-1.1377887 0.87259871 0.26420245 4278821823
-1.1448013 0.88273907 0.26598531 4278821823
-0.65352827 0.39580539 0.2766175 4278821823
-0.6475116 0.39680544 0.27474114 4278821823
-0.65468425 0.40587586 0.27567339 4278821823
-0.64435977 0.40565968 0.27515543 4278821823
-0.63852882 0.40587831 0.27219018 4278821823
-0.65374756 0.41458035 0.27454835 4278821823
-0.64387733 0.41441232 0.27499247 4278821823
-0.63970834 0.41073903 0.27557495 4278821823
-0.65128368 0.42413464 0.27601632 4278821823
-0.64335144 0.42504987 0.27467319 4278821823
-0.63950902 0.4281435 0.27488366 4278821823
-0.65066546 0.43555662 0.2762388 4278821823
-0.64224124 0.43365979 0.27516341 4278821823
-0.63880533 0.43607801 0.27504945 4278821823
-0.65139264 0.44567585 0.27539068 4278821823
-0.64392555 0.44524202 0.27429393 4278821823
-0.63855392 0.44448513 0.27504009 4278821823
-0.6539951 0.45538607 0.27414244 4278821823
-0.64416391 0.45508847 0.27570534 4278821823
-0.63892835 0.45234266 0.27473378 4278821823
-0.6606788 0.46793023 0.27318931 4278821823
-0.65229762 0.46744764 0.27549982 4278821823
-0.64590728 0.46472633 0.27475995 4278821823
-0.63946748 0.46139812 0.27381033 4278821823
-0.67111617 0.47889891 0.27332699 4278821823
-0.66261327 0.47833332 0.27487728 4278821823
-0.65586871 0.47469243 0.27543741 4278821823
-0.64844269 0.47139707 0.27512565 4278821823
-0.68231618 0.48847166 0.27468246 4278821823
-0.67513967 0.48581386 0.27489868 4278821823
-0.66596431 0.4825623 0.27556667 4278821823
-0.65930915 0.48040307 0.2753832 4278821823
-0.75341856 0.49950853 0.27791628 4278821823
-0.74360639 0.4990778 0.27437535 4278821823
-0.73523247 0.49855992 0.27376154 4278821823
-0.72346288 0.49797934 0.2735365 4278821823
-0.71466076 0.49709159 0.27461043 4278821823
-0.70470935 0.49604273 0.27515399 4278821823
-0.69493085 0.49407846 0.27505741 4278821823
-0.68616498 0.49176091 0.27481443 4278821823
-0.67879313 0.49133053 0.27487299 4278821823
-1.091673 0.50773573 0.2743037 4278821823
-1.0556983 0.50900859 0.27177769 4278821823
-1.0308875 0.50995517 0.27033344 4278821823
-0.97244024 0.50968242 0.27497894 4278821823
-0.93378657 0.5096224 0.2745035 4278821823
-0.92046672 0.50938237 0.277574 4278821823
-0.91407013 0.50886858 0.27456221 4278821823
-0.89591628 0.5089547 0.2724281 4278821823
-0.88274843 0.50913805 0.27343968 4278821823
-0.87543243 0.50905257 0.27328217 4278821823
-0.86340302 0.50841552 0.27374929 4278821823
-0.85501957 0.50762957 0.27447641 4278821823
-0.84435153 0.50794625 0.27463371 4278821823
-0.83522701 0.50783312 0.27521935 4278821823
-0.82554972 0.50760752 0.27498001 4278821823
-0.81481761 0.50733024 0.27564317 4278821823
-0.80561846 0.50662172 0.27497908 4278821823
-0.79532921 0.50585276 0.27450955 4278821823
-0.78430521 0.50612152 0.27504975 4278821823
-0.77475899 0.50556147 0.27517474 4278821823
-0.76471388 0.50426131 0.27485397 4278821823
-0.75512129 0.50303507 0.27505094 4278821823
-0.74579942 0.50259006 0.27477252 4278821823
-0.73727393 0.50182801 0.27573022 4278821823
-0.72467327 0.5017696 0.27598041 4278821823
-0.71606857 0.5010848 0.27582213 4278821823
-0.70739084 0.50047368 0.27907711 4278821823
-1.122664 0.51707911 0.27454478 4278821823
-1.1142683 0.51690418 0.27345601 4278821823
-1.1047609 0.51565701 0.27525273 4278821823
-1.0954511 0.51419204 0.27563247 4278821823
-1.0853143 0.51299888 0.27539638 4278821823
-1.0735052 0.51435566 0.27460089 4278821823
-1.0650718 0.51493651 0.27489597 4278821823
-1.0552262 0.51475346 0.27613896 4278821823
-1.0446703 0.51453555 0.2749272 4278821823
-1.0352138 0.51546395 0.2747061 4278821823
-1.0245996 0.51577979 0.27430683 4278821823
-1.0148413 0.51622778 0.27510318 4278821823
-1.0045187 0.51514781 0.27389571 4278821823
-0.9944917 0.51524198 0.27510032 4278821823
-0.98503286 0.51497597 0.27509204 4278821823
-0.97563684 0.51433086 0.27465862 4278821823
-0.96439981 0.51507187 0.2748622 4278821823
-0.95501804 0.51485986 0.27522415 4278821823
-0.94536668 0.51405275 0.27488035 4278821823
-0.93602622 0.51341784 0.27491498 4278821823
-0.92413175 0.51373625 0.27515236 4278821823
-0.91687024 0.51322806 0.27402219 4278821823
-0.90447581 0.51307136 0.27521673 4278821823
-0.89462787 0.51302212 0.27537161 4278821823
-0.88545257 0.51283294 0.27542233 4278821823
-0.87361145 0.5134536 0.27615181 4278821823
-0.8652848 0.51227957 0.27633128 4278821823
-0.85556102 0.51199526 0.275929 4278821823
-0.84368795 0.5120241 0.27439409 4278821823
-0.83511567 0.51167262 0.27532107 4278821823
-0.82250518 0.51041883 0.2759552 4278821823
-0.81573212 0.51055241 0.27618635 4278821823
-0.806467 0.51142919 0.27445608 4278821823
-0.79606712 0.51175714 0.27694038 4278821823
-0.78497016 0.51088828 0.2767055 4278821823
-0.77729177 0.51142466 0.27883828 4278821823
-0.76218617 0.51014632 0.2780031 4278821823
-0.74786818 0.51033813 0.27085194 4278821823
-1.1211789 0.52216059 0.27259517 4278821823
-1.1152449 0.52158237 0.27550364 4278821823
-1.1071432 0.5207659 0.27416968 4278821823
-1.0843534 0.52144641 0.27555314 4278821823
-1.0749693 0.52180403 0.2750991 4278821823
-1.0649896 0.5215891 0.27577564 4278821823
-1.0556706 0.52095991 0.2735714 4278821823
-1.0464331 0.52104986 0.27389711 4278821823
-1.0378039 0.52109748 0.27520975 4278821823
-1.0251851 0.52188706 0.27812642 4278821823
-1.0118084 0.52017891 0.27840239 4278821823
-1.0052334 0.52020746 0.27490142 4278821823
-0.99712199 0.5216347 0.27762347 4278821823
-0.95488274 0.52022362 0.27780914 4278821823
-1.0812596 0.56830311 0.27230889 4278821823
-1.0756963 0.56776577 0.27618617 4278821823
-1.0692564 0.56774288 0.27359974 4278821823
-1.0742022 0.57519656 0.27518433 4278821823
-1.0693237 0.57576352 0.27434739 4278821823
-1.080012 0.5895133 0.27892935 4278821823
-1.0736787 0.58504593 0.27533469 4278821823
-1.0688891 0.58525568 0.27368411 4278821823
-1.0819845 0.59505337 0.27700552 4278821823
-1.0737339 0.59458178 0.27527237 4278821823
-1.0683064 0.59504527 0.27428809 4278821823
-1.081259 0.606664 0.27321917 4278821823
-1.0743624 0.60541743 0.27472728 4278821823
-1.0678899 0.60562837 0.2743623 4278821823
-1.08128 0.61531299 0.27234015 4278821823
-1.0749451 0.61544144 0.27544609 4278821823
-1.0694588 0.61352515 0.27204221 4278821823
-1.0810862 0.62546086 0.2748791 4278821823
-1.0751953 0.62541974 0.27566677 4278821823
-1.081278 0.63602269 0.27637056 4278821823
-1.0766257 0.6342628 0.27473187 4278821823
-1.0819516 0.646716 0.27605319 4278821823
-1.0774653 0.64393264 0.27386796 4278821823
-1.0824727 0.6558035 0.27571699 4278821823
-1.0787122 0.65401036 0.27467322 4278821823
-1.0829567 0.66489196 0.27495876 4278821823
-1.0795026 0.6658541 0.27375028 4278821823
-1.0904174 0.67969108 0.27491048 4278821823
-1.0840871 0.6749751 0.27505416 4278821823
-1.0791768 0.67431378 0.27626902 4278821823
-1.0906916 0.68550915 0.27342406 4278821823
-1.0855577 0.68508232 0.27563691 4278821823
-1.0793809 0.6813401 0.27222514 4278821823
-1.0911506 0.6967566 0.27507505 4278821823
-1.0874667 0.69491065 0.27508637 4278821823
-1.0917674 0.70568925 0.27511349 4278821823
-1.0875639 0.704696 0.27623612 4278821823
-1.092983 0.71502733 0.27547252 4278821823
-1.0888965 0.71384263 0.27304387 4278821823
-1.1007441 0.72597963 0.27793208 4278821823
-1.0944744 0.72482383 0.27392074 4278821823
-1.0889974 0.72254729 0.2717703 4278821823
-1.1013207 0.73480004 0.27469957 4278821823
-1.0965328 0.73380172 0.27367741 4278821823
-1.1014225 0.74611682 0.27537334 4278821823
-1.0978603 0.74452502 0.27509394 4278821823
-1.1029309 0.755202 0.27483827 4278821823
-1.099159 0.75358075 0.27465057 4278821823
-1.1105989 0.76307619 0.2717247 4278821823
-1.1052256 0.76459265 0.27516598 4278821823
-1.11069 0.77529454 0.27373955 4278821823
-1.1069562 0.77434993 0.27511215 4278821823
-1.0997486 0.77256972 0.2799167 4278821823
-1.1112771 0.78632158 0.27501199 4278821823
-1.1075668 0.78461277 0.27490252 4278821823
-1.1131015 0.79578739 0.27561352 4278821823
-1.1085718 0.79469311 0.27349189 4278821823
-1.1144266 0.80492234 0.2748768 4278821823
-1.1090398 0.80309802 0.2708455 4278821823
-1.1213183 0.81825376 0.27446777 4278821823
-1.1165922 0.81460243 0.27490428 4278821823
-1.1213777 0.82598519 0.27531952 4278821823
-1.1183467 0.82445753 0.27542126 4278821823
-1.1231533 0.83519077 0.27477545 4278821823
-1.1192538 0.83281457 0.27405497 4278821823
-1.1312319 0.84674686 0.27515739 4278821823
-1.1254165 0.8445031 0.27531645 4278821823
-1.1194451 0.84420443 0.27665275 4278821823
-1.1324399 0.85646296 0.27640855 4278821823
-1.126143 0.85421908 0.27454793 4278821823
-1.1195009 0.85336733 0.27650893 4278821823
-1.1414236 0.86693114 0.27849525 4278821823
-1.1346055 0.8656159 0.27428734 4278821823
-1.1276988 0.86261803 0.27417031 4278821823
-1.1427071 0.87639022 0.27514714 4278821823
-1.1370517 0.87365806 0.274645 4278821823
-1.1265033 0.87003911 0.27998513 4278821823
-1.1440053 0.88102198 0.27331835 4278821823
-0.65222311 0.39526746 0.28376028 4278821823
-0.6435141 0.39807591 0.28567347 4278821823
-0.65343094 0.40484297 0.2839666 4278821823
-0.64662433 0.40557614 0.28423357 4278821823
-0.6532408 0.41569567 0.28546235 4278821823
-0.64517796 0.41493887 0.28481543 4278821823
-0.65171111 0.42553008 0.28552905 4278821823
-0.64363158 0.42462477 0.28550187 4278821823
-0.63895559 0.42742264 0.28309998 4278821823
-0.65132189 0.4344272 0.28334141 4278821823
-0.64461786 0.43512821 0.28400782 4278821823
-0.63818455 0.43555343 0.2859287 4278821823
-0.65060973 0.44540074 0.28115949 4278821823
-0.64349216 0.44577536 0.28569999 4278821823
-0.63818294 0.44502401 0.28506905 4278821823
-0.65220654 0.45685098 0.28644949 4278821823
-0.6443761 0.45533904 0.28466076 4278821823
-0.63902873 0.4523789 0.28414512 4278821823
-0.66033745 0.46727109 0.28793317 4278821823
-0.6523239 0.46720102 0.28543139 4278821823
-0.64615774 0.46528655 0.28509358 4278821823
-0.6702202 0.47928831 0.28887513 4278821823
-0.66248435 0.47779387 0.28426644 4278821823
-0.65525007 0.47489643 0.28469238 4278821823
-0.64864194 0.47214136 0.28577489 4278821823
-0.68291187 0.48888311 0.28370565 4278821823
-0.67431962 0.48678893 0.28520203 4278821823
-0.66638148 0.48263782 0.28471062 4278821823
-0.65833592 0.48066887 0.28483209 4278821823
-0.75058335 0.49996272 0.28101519 4278821823
-0.74360585 0.49923784 0.28113008 4278821823
-0.73346305 0.49941155 0.28333926 4278821823
-0.72304857 0.49896809 0.28472263 4278821823
-0.71390194 0.49838677 0.28510803 4278821823
-0.70443326 0.49727091 0.28515381 4278821823
-0.69483316 0.49457747 0.28479892 4278821823
-0.68597615 0.49217469 0.28501472 4278821823
-0.67831749 0.49073315 0.28739831 4278821823
-0.8827675 0.50969303 0.28074765 4278821823
-0.87325227 0.50876534 0.2830258 4278821823
-0.86456412 0.50901663 0.28369725 4278821823
-0.85526323 0.5089137 0.28379312 4278821823
-0.84311712 0.50895119 0.28237087 4278821823
-0.83463109 0.50844365 0.28265819 4278821823
-0.82491028 0.50819021 0.28428897 4278821823
-0.81486893 0.50808889 0.28274941 4278821823
-0.80381829 0.50756711 0.28444409 4278821823
-0.79480886 0.50746906 0.2858386 4278821823
-0.78515875 0.5071615 0.28500259 4278821823
-0.77563119 0.50658906 0.28438866 4278821823
-0.76453793 0.50502002 0.28518522 4278821823
-0.75535125 0.50416261 0.28477687 4278821823
-0.74468517 0.50363475 0.28535327 4278821823
-0.73489875 0.50244272 0.2857655 4278821823
-0.72538674 0.50177419 0.28527394 4278821823
-0.71677703 0.50099504 0.28693208 4278821823
-0.70848924 0.50044703 0.28430575 4278821823
-1.1221445 0.51745963 0.2841484 4278821823
-1.112833 0.51711249 0.28461707 4278821823
-1.1034902 0.51641804 0.28355315 4278821823
-1.094698 0.51543605 0.28434521 4278821823
-1.0844076 0.51509643 0.2851471 4278821823
-1.074769 0.51552898 0.28546327 4278821823
-1.0656855 0.51589727 0.28511339 4278821823
-1.0548127 0.51611346 0.2841765 4278821823
-1.0456765 0.51558042 0.28579447 4278821823
-1.0356967 0.51545393 0.28474629 4278821823
-1.0248133 0.51640964 0.28492752 4278821823
-1.0149851 0.51623142 0.2850658 4278821823
-1.0059669 0.51601237 0.28512341 4278821823
-0.99514139 0.51644838 0.28470236 4278821823
-0.98461848 0.51708776 0.28611737 4278821823
-0.9748705 0.51608205 0.28511029 4278821823
-0.96580684 0.51582778 0.28431043 4278821823
-0.95410937 0.51548922 0.28436807 4278821823
-0.94517386 0.51458776 0.28435224 4278821823
-0.93459225 0.51540267 0.28565449 4278821823
-0.92517948 0.51538795 0.28476822 4278821823
-0.91423857 0.51544857 0.2849721 4278821823
-0.90476906 0.51493984 0.28522804 4278821823
-0.8953234 0.51361513 0.28454927 4278821823
-0.88510227 0.51369017 0.28517488 4278821823
-0.87462151 0.51333129 0.28514141 4278821823
-0.8656022 0.51260412 0.28526941 4278821823
-0.85488307 0.51289141 0.28645194 4278821823
-0.84494811 0.51234448 0.28609076 4278821823
-0.83524591 0.51170623 0.28651875 4278821823
-0.82549697 0.51156121 0.28711307 4278821823
-0.81504244 0.51094514 0.28478047 4278821823
-0.8047542 0.51118135 0.28643551 4278821823
-0.79441774 0.51142579 0.28371969 4278821823
-0.78557462 0.51090288 0.28372574 4278821823
-0.77612722 0.51020074 0.28766781 4278821823
-0.7642557 0.51231712 0.28515089 4278821823
-1.1210196 0.52319735 0.2883808 4278821823
-1.116318 0.52266622 0.28375939 4278821823
-1.1043802 0.52194482 0.28548077 4278821823
-1.0944608 0.52149069 0.28786916 4278821823
-1.0809516 0.52244973 0.28556725 4278821823
-1.0753118 0.52330774 0.28488156 4278821823
-1.0662221 0.52196211 0.28481853 4278821823
-1.0564394 0.52051651 0.28608364 4278821823
-1.0442168 0.52174026 0.28641844 4278821823
-1.0359781 0.52177036 0.2849735 4278821823
-1.0251513 0.52262419 0.28515798 4278821823
-1.0152392 0.52243692 0.28541461 4278821823
-1.0052798 0.52180851 0.28495252 4278821823
-0.9982453 0.52091503 0.28064415 4278821823
-0.9741956 0.52002478 0.28801212 4278821823
-0.96357745 0.52040797 0.28562123 4278821823
-0.95583653 0.52073687 0.28551486 4278821823
-0.94448912 0.52125072 0.287283 4278821823
-0.92157036 0.52037793 0.28962529 4278821823
-0.91139311 0.52030122 0.2890957 4278821823
-1.0809653 0.5651108 0.28717351 4278821823
-1.0757892 0.56781042 0.28375894 4278821823
-1.0806675 0.57341033 0.28381708 4278821823
-1.0756519 0.57528019 0.28532299 4278821823
-1.0809485 0.58560097 0.28457355 4278821823
-1.0743474 0.58491886 0.2846795 4278821823
-1.0690691 0.5871681 0.28660947 4278821823
-1.0807201 0.59473896 0.28362095 4278821823
-1.0738181 0.59487212 0.28538185 4278821823
-1.0687357 0.59466004 0.2867963 4278821823
-1.0741765 0.60530168 0.28540191 4278821823
-1.0690676 0.60353899 0.28350234 4278821823
-1.0752554 0.61513901 0.28485557 4278821823
-1.069824 0.61030996 0.28184673 4278821823
-1.0807831 0.62654912 0.28751144 4278821823
-1.0767597 0.62490767 0.28492603 4278821823
-1.0818627 0.63553822 0.28602672 4278821823
-1.0778984 0.63384122 0.28389853 4278821823
-1.082124 0.64604706 0.28363538 4278821823
-1.0786577 0.64494395 0.28541765 4278821823
-1.0830753 0.6556263 0.28468966 4278821823
-1.0787357 0.65425158 0.28578636 4278821823
-1.0834061 0.66485387 0.28455508 4278821823
-1.0780871 0.66577101 0.28796959 4278821823
-1.0834717 0.67526579 0.28444159 4278821823
-1.0792035 0.67417032 0.28787023 4278821823
-1.0910103 0.68666661 0.28404 4278821823
-1.085171 0.68442601 0.2851404 4278821823
-1.079169 0.68410015 0.28567398 4278821823
-1.0912496 0.69710982 0.28595644 4278821823
-1.0864214 0.69537818 0.28413644 4278821823
-1.0793142 0.69230646 0.28326097 4278821823
-1.0921867 0.70587492 0.28526232 4278821823
-1.0878254 0.70347226 0.28410143 4278821823
-1.1016773 0.7195853 0.28897911 4278821823
-1.094383 0.71483701 0.28501177 4278821823
-1.0892602 0.7140035 0.28517875 4278821823
-1.1005666 0.72763908 0.28311425 4278821823
-1.0960613 0.72522676 0.2851024 4278821823
-1.1010267 0.73508096 0.28428721 4278821823
-1.0969431 0.73507255 0.28497404 4278821823
-1.1028978 0.74623275 0.28549773 4278821823
-1.0983183 0.74280649 0.2846424 4278821823
-1.1030083 0.7553395 0.28535393 4278821823
-1.0988306 0.75643033 0.28405914 4278821823
-1.1111345 0.76681232 0.28193003 4278821823
-1.1040616 0.7650786 0.28535202 4278821823
-1.0987514 0.76626235 0.28747812 4278821823
-1.1116109 0.77630126 0.28531605 4278821823
-1.1054374 0.77487624 0.28512657 4278821823
-1.0991858 0.77159142 0.28404543 4278821823
-1.1121107 0.78669643 0.28519195 4278821823
-1.1075548 0.78415918 0.28442419 4278821823
-1.1131399 0.79517937 0.28499803 4278821823
-1.1092052 0.79345942 0.28441235 4278821823
-1.1141913 0.80503726 0.28499469 4278821823
-1.1095637 0.80255407 0.28831822 4278821823
-1.121676 0.81618458 0.28541356 4278821823
-1.1165239 0.81428105 0.28487849 4278821823
-1.1215405 0.82599288 0.28505725 4278821823
-1.1183953 0.82371402 0.28485543 4278821823
-1.1237706 0.83484864 0.28393951 4278821823
-1.1178123 0.83433777 0.286235 4278821823
-1.1308782 0.84668732 0.28348055 4278821823
-1.1251363 0.84516972 0.28549138 4278821823
-1.1178501 0.84445238 0.28674376 4278821823
-1.1319183 0.85636526 0.28528428 4278821823
-1.1265965 0.8535279 0.28538537 4278821823
-1.1190195 0.8511408 0.28391215 4278821823
-1.1407261 0.86875141 0.28513569 4278821823
-1.1338575 0.86573601 0.28522369 4278821823
-1.1275982 0.86316675 0.28467953 4278821823
-1.1419379 0.8759445 0.28622103 4278821823
-1.136951 0.8734082 0.28418598 4278821823
-1.1281257 0.87058252 0.28503743 4278821823
-1.1411073 0.88102806 0.28769469 4278821823
-1.1367931 0.88108206 0.28345755 4278821823
-0.65200388 0.39696458 0.29538223 4278821823
-0.64687264 0.39658204 0.29159099 4278821823
-0.65113324 0.40446344 0.29541472 4278821823
-0.64698529 0.406753 0.29432812 4278821823
-0.65521973 0.41769835 0.29592779 4278821823
-0.64508402 0.41509607 0.29519808 4278821823
-0.65326554 0.4241153 0.29514045 4278821823
-0.64315623 0.42455918 0.29516482 4278821823
-0.63966238 0.42852023 0.29932022 4278821823
-0.65082675 0.43458217 0.29702803 4278821823
-0.64288509 0.43529701 0.29613274 4278821823
-0.63861817 0.43593457 0.29409155 4278821823
-0.65094382 0.44597742 0.29501718 4278821823
-0.64292377 0.44477162 0.29579034 4278821823
-0.63857758 0.44447467 0.29385284 4278821823
-0.65225178 0.4558529 0.29540896 4278821823
-0.64507884 0.45483574 0.29567584 4278821823
-0.63854188 0.45303139 0.29462713 4278821823
-0.65252608 0.46682459 0.29571092 4278821823
-0.64719993 0.46391237 0.29485312 4278821823
-0.66238201 0.47812825 0.29375303 4278821823
-0.65577602 0.47455388 0.29537809 4278821823
-0.64881086 0.47118321 0.2936115 4278821823
-0.69126827 0.48973238 0.29683793 4278821823
-0.68257189 0.48857173 0.29499733 4278821823
-0.67474717 0.48661965 0.29504615 4278821823
-0.66591132 0.48306674 0.29514268 4278821823
-0.658737 0.48152909 0.29453453 4278821823
-0.73015296 0.49981603 0.29889828 4278821823
-0.72451341 0.49900019 0.29336771 4278821823
-0.71533525 0.49872518 0.29427403 4278821823
-0.70476741 0.49740058 0.29470545 4278821823
-0.69488657 0.4948062 0.29496211 4278821823
-0.68612283 0.49195752 0.29405484 4278821823
-0.67752331 0.49070847 0.29507777 4278821823
-0.86245704 0.50933284 0.29292017 4278821823
-0.85695803 0.50924933 0.29186141 4278821823
-0.8225345 0.50908989 0.29138577 4278821823
-0.8142941 0.50872916 0.29288286 4278821823
-0.80389094 0.5081436 0.29404902 4278821823
-0.79513264 0.50794226 0.29437095 4278821823
-0.78618425 0.50764978 0.29405984 4278821823
-0.774432 0.50722796 0.29560193 4278821823
-0.76499063 0.50644743 0.29501542 4278821823
-0.75460541 0.505808 0.29516053 4278821823
-0.74496263 0.50426352 0.29518363 4278821823
-0.73499244 0.50288904 0.29503408 4278821823
-0.72510654 0.50178689 0.29516944 4278821823
-0.71623981 0.50118935 0.29469177 4278821823
-0.70651126 0.50116754 0.29536662 4278821823
-1.1212451 0.51922458 0.29046074 4278821823
-1.112878 0.51851767 0.29458418 4278821823
-1.1037103 0.51754159 0.29403818 4278821823
-1.0948049 0.51713508 0.29427293 4278821823
-1.0853224 0.51621819 0.29454505 4278821823
-1.075866 0.5159145 0.29471922 4278821823
-1.0647523 0.51644409 0.29503942 4278821823
-1.0548946 0.516222 0.29576933 4278821823
-1.044359 0.51591158 0.29440451 4278821823
-1.0369073 0.51628 0.2952795 4278821823
-1.0242335 0.51773632 0.29445827 4278821823
-1.0151169 0.51787567 0.29410508 4278821823
-1.0041469 0.51763248 0.29520902 4278821823
-0.99540931 0.51716334 0.29448014 4278821823
-0.98503035 0.51702756 0.29457536 4278821823
-0.97477746 0.51589996 0.29517308 4278821823
-0.96525002 0.51630628 0.29531446 4278821823
-0.95505816 0.51586187 0.29473943 4278821823
-0.94535065 0.51624954 0.29576796 4278821823
-0.93480462 0.51634908 0.29516473 4278821823
-0.9240526 0.51728362 0.29523268 4278821823
-0.9151966 0.51679659 0.29483095 4278821823
-0.90491962 0.51612961 0.29496241 4278821823
-0.89539874 0.51530099 0.29544964 4278821823
-0.88493806 0.51516068 0.29500794 4278821823
-0.87457144 0.51445341 0.29541701 4278821823
-0.86534882 0.51335824 0.29469195 4278821823
-0.85534132 0.51292497 0.29524833 4278821823
-0.84476823 0.51297408 0.29509357 4278821823
-0.83477402 0.51268005 0.29535508 4278821823
-0.82556951 0.51169986 0.29498985 4278821823
-0.81517696 0.51205778 0.29562661 4278821823
-0.80561274 0.51134926 0.2964285 4278821823
-0.79746222 0.51117611 0.29475868 4278821823
-0.7830959 0.51254892 0.29622886 4278821823
-0.77577263 0.51148856 0.29529399 4278821823
-0.76553988 0.51083457 0.29416126 4278821823
-0.75090319 0.51009655 0.29192391 4278821823
-0.7493391 0.51006341 0.29051858 4278821823
-1.1228842 0.52323687 0.29005611 4278821823
-1.1162894 0.52301681 0.29508263 4278821823
-1.1071302 0.52336204 0.29708806 4278821823
-1.094893 0.52367669 0.29578206 4278821823
-1.0853322 0.52394366 0.29673463 4278821823
-1.0747024 0.52515733 0.29542676 4278821823
-1.0638607 0.52257884 0.29457009 4278821823
-1.0539721 0.52405483 0.29601601 4278821823
-1.0448185 0.52227026 0.29524919 4278821823
-1.0351458 0.52260345 0.29483432 4278821823
-1.023083 0.52230322 0.2962268 4278821823
-1.0147485 0.52111465 0.2968359 4278821823
-1.0061269 0.52090597 0.29598641 4278821823
-0.98473775 0.52084488 0.2970832 4278821823
-0.9751212 0.52057874 0.29509813 4278821823
-0.96404338 0.52052951 0.29561475 4278821823
-0.95751208 0.52091306 0.29457918 4278821823
-0.9455108 0.52196604 0.29554465 4278821823
-0.93542194 0.52148163 0.29564762 4278821823
-0.92646343 0.52088845 0.2937482 4278821823
-0.91503412 0.52020991 0.29505873 4278821823
-1.0815768 0.56420135 0.29580736 4278821823
-1.0748448 0.56750596 0.29633278 4278821823
-1.0690322 0.56789535 0.29715574 4278821823
-1.0810244 0.57475328 0.29608667 4278821823
-1.0756133 0.57537866 0.29483014 4278821823
-1.067764 0.57623845 0.294815 4278821823
-1.0588133 0.57413244 0.29259652 4278821823
-1.0801212 0.58205044 0.29662704 4278821823
-1.0741935 0.58488005 0.29512277 4278821823
-1.0694715 0.58728486 0.29479027 4278821823
-1.0738018 0.59510505 0.29535586 4278821823
-1.0695959 0.59267455 0.29334965 4278821823
-1.0801483 0.60322481 0.29931423 4278821823
-1.0751333 0.60515046 0.29477802 4278821823
-1.0814223 0.61621326 0.29439002 4278821823
-1.0761397 0.61521661 0.29500216 4278821823
-1.0695971 0.61625338 0.2980175 4278821823
-1.0816494 0.62590522 0.29303059 4278821823
-1.0770376 0.62534142 0.29395223 4278821823
-1.0681062 0.62562537 0.2976011 4278821823
-1.0820271 0.63459188 0.2948986 4278821823
-1.0772498 0.63597178 0.29543632 4278821823
-1.0688885 0.63187343 0.29538488 4278821823
-1.0814685 0.64572591 0.29408681 4278821823
-1.077647 0.6445055 0.29587916 4278821823
-1.081967 0.65536821 0.29538196 4278821823
-1.0781146 0.65401906 0.29404488 4278821823
-1.0901245 0.66809893 0.29572505 4278821823
-1.0839043 0.66495872 0.29435664 4278821823
-1.0784678 0.663405 0.29335976 4278821823
-1.0908437 0.67788064 0.298383 4278821823
-1.0840863 0.67460829 0.29379377 4278821823
-1.0795146 0.67167288 0.29167157 4278821823
-1.0912799 0.68604428 0.29585674 4278821823
-1.0868375 0.6845597 0.29487365 4278821823
-1.0916944 0.69582206 0.29447767 4278821823
-1.0881137 0.69479728 0.29483974 4278821823
-1.0920389 0.7054894 0.29455709 4278821823
-1.0884166 0.70506513 0.29461819 4278821823
-1.093608 0.71481419 0.29473945 4278821823
-1.0886092 0.71386063 0.29761392 4278821823
-1.0934945 0.72499001 0.29545242 4278821823
-1.0894306 0.72390676 0.29615659 4278821823
-1.1006656 0.7368995 0.29666016 4278821823
-1.0960932 0.73509389 0.29511592 4278821823
-1.0898017 0.73410469 0.29306155 4278821823
-1.1016084 0.746328 0.29322696 4278821823
-1.098011 0.74415374 0.29569739 4278821823
-1.1024908 0.75508744 0.29436287 4278821823
-1.0986652 0.75417191 0.29738209 4278821823
-1.1037318 0.76500595 0.29546049 4278821823
-1.0985006 0.76146525 0.29176158 4278821823
-1.1113673 0.77634603 0.29828426 4278821823
-1.1063045 0.77537811 0.29446906 4278821823
-1.0988783 0.77262276 0.29709569 4278821823
-1.1120465 0.78563535 0.29496485 4278821823
-1.1081376 0.78365058 0.29487401 4278821823
-1.1127046 0.79511946 0.29500416 4278821823
-1.1089047 0.79440528 0.29517999 4278821823
-1.1206374 0.80834335 0.29872096 4278821823
-1.1141291 0.80482978 0.29478353 4278821823
-1.1094379 0.80522197 0.29704744 4278821823
-1.1210467 0.81568867 0.29395929 4278821823
-1.1157432 0.81479251 0.29509082 4278821823
-1.1093557 0.81068575 0.29250216 4278821823
-1.1223075 0.82598662 0.29371086 4278821823
-1.1173918 0.82477844 0.29571357 4278821823
-1.1223962 0.83564246 0.29492742 4278821823
-1.1182013 0.83287376 0.29624283 4278821823
-1.1304075 0.84887713 0.29515964 4278821823
-1.1248267 0.84485805 0.29563367 4278821823
-1.1183492 0.84383875 0.29449227 4278821823
-1.1314074 0.85653734 0.29579577 4278821823
-1.1267018 0.85402536 0.29560795 4278821823
-1.1193411 0.85020983 0.29995289 4278821823
-1.1408817 0.86819535 0.29527044 4278821823
-1.1338067 0.86588591 0.29459718 4278821823
-1.1275306 0.86339724 0.29530507 4278821823
-1.1519847 0.87808961 0.29503641 4278821823
-1.1434542 0.8753863 0.29628757 4278821823
-1.1369164 0.87322861 0.29451346 4278821823
-1.1297415 0.87112606 0.29008326 4278821823
-1.1436958 0.88099569 0.29023695 4278821823
-1.1364596 0.88103896 0.29833257 4278821823
-0.65205008 0.39818516 0.30205974 4278821823
-0.65111625 0.40535235 0.30498675 4278821823
-0.64644086 0.40733233 0.30490232 4278821823
-0.6511476 0.41311103 0.3057214 4278821823
-0.64544731 0.41495246 0.30484906 4278821823
-0.6399222 0.41024613 0.30136707 4278821823
-0.65278 0.42655563 0.3048785 4278821823
-0.64282429 0.42487434 0.30562535 4278821823
-0.63867581 0.42653435 0.303976 4278821823
-0.65187806 0.4356851 0.30472022 4278821823
-0.64191997 0.4351756 0.30457562 4278821823
-0.63913012 0.43469888 0.30557764 4278821823
-0.65127921 0.44401357 0.30547819 4278821823
-0.64363784 0.4460538 0.30504888 4278821823
-0.63932502 0.44473237 0.3053861 4278821823
-0.65224093 0.45567256 0.30524281 4278821823
-0.64568007 0.45482549 0.30469689 4278821823
-0.63922381 0.45250684 0.30186325 4278821823
-0.66151112 0.46683508 0.30678916 4278821823
-0.65242672 0.46650094 0.30407488 4278821823
-0.64811993 0.4639287 0.30568099 4278821823
-0.66224253 0.47808415 0.30514461 4278821823
-0.65655172 0.47403836 0.30407706 4278821823
-0.64948177 0.47199225 0.30723733 4278821823
-0.69147873 0.48980519 0.30150256 4278821823
-0.68293887 0.48890835 0.30382469 4278821823
-0.67470992 0.48697829 0.30513424 4278821823
-0.66576135 0.4832612 0.30505949 4278821823
-0.65927964 0.48115763 0.30436477 4278821823
-0.73201931 0.49983895 0.3012892 4278821823
-0.72211975 0.49907151 0.30430171 4278821823
-0.71378636 0.4985846 0.30426267 4278821823
-0.70464623 0.49737674 0.30484635 4278821823
-0.69519675 0.49462476 0.30496463 4278821823
-0.68555105 0.49198204 0.3054828 4278821823
-0.67762935 0.49067304 0.3071835 4278821823
-0.86249441 0.50955808 0.30059081 4278821823
-0.81063789 0.5096947 0.30649763 4278821823
-0.80586451 0.50919873 0.30316916 4278821823
-0.79456878 0.50869638 0.30381161 4278821823
-0.78500497 0.50790417 0.30478555 4278821823
-0.77489775 0.50800735 0.30445829 4278821823
-0.76480073 0.50688565 0.30506501 4278821823
-0.75500476 0.50611973 0.30452234 4278821823
-0.74489355 0.50514185 0.30526429 4278821823
-0.73526204 0.50333357 0.30504721 4278821823
-0.72531205 0.50204259 0.30492011 4278821823
-0.71613234 0.50110888 0.30489123 4278821823
-0.70652246 0.50091118 0.30768999 4278821823
-1.1224302 0.51735175 0.30298617 4278821823
-1.1124668 0.51885164 0.30474901 4278821823
-1.1061792 0.51788265 0.30452755 4278821823
-1.0945283 0.51810879 0.30548826 4278821823
-1.0853624 0.51750046 0.30414423 4278821823
-1.0752438 0.51784074 0.30470392 4278821823
-1.0647362 0.51726103 0.3050521 4278821823
-1.0557362 0.51576281 0.30464068 4278821823
-1.0445856 0.5158965 0.30489555 4278821823
-1.0351611 0.51777077 0.30531657 4278821823
-1.0249947 0.5184058 0.30627578 4278821823
-1.0149372 0.51828575 0.30610061 4278821823
-1.0052553 0.51790547 0.30404675 4278821823
-0.99435902 0.51747382 0.30487382 4278821823
-0.98516709 0.51681995 0.30532807 4278821823
-0.97496778 0.51619691 0.30521053 4278821823
-0.96397746 0.51712441 0.30500668 4278821823
-0.95485246 0.51720822 0.30334377 4278821823
-0.94578075 0.51736987 0.3036319 4278821823
-0.93456441 0.51760256 0.30506802 4278821823
-0.92457521 0.51737005 0.30419537 4278821823
-0.9140209 0.5172798 0.30577528 4278821823
-0.90481442 0.51660836 0.3051883 4278821823
-0.89512694 0.51582825 0.30479908 4278821823
-0.88499814 0.51556259 0.30458289 4278821823
-0.8749007 0.5153597 0.30484709 4278821823
-0.86509323 0.51436794 0.30489573 4278821823
-0.85481626 0.51438266 0.30543298 4278821823
-0.8452093 0.51375502 0.30500656 4278821823
-0.83585978 0.51277435 0.30491406 4278821823
-0.82420504 0.5128085 0.30552313 4278821823
-0.81465083 0.51265204 0.30498976 4278821823
-0.80552405 0.51169574 0.30474111 4278821823
-0.79533744 0.51137948 0.3060762 4278821823
-0.78479689 0.51189548 0.3070749 4278821823
-0.77466279 0.51069427 0.30804393 4278821823
-0.76756346 0.51065016 0.30757707 4278821823
-1.1247356 0.52191961 0.3032127 4278821823
-1.1123198 0.52279878 0.30432844 4278821823
-1.1054947 0.52181911 0.30578262 4278821823
-1.0947932 0.52242535 0.30529469 4278821823
-1.0861291 0.52249807 0.30553773 4278821823
-1.0737591 0.52444738 0.3063803 4278821823
-1.0669003 0.52180368 0.30764517 4278821823
-1.0557564 0.52313435 0.30443579 4278821823
-1.0452441 0.52165699 0.30546638 4278821823
-1.035931 0.52365285 0.30569869 4278821823
-1.0238606 0.52196836 0.30482343 4278821823
-1.0149417 0.52157015 0.30348027 4278821823
-1.0045233 0.52159947 0.3069807 4278821823
-0.99414086 0.52205646 0.30478519 4278821823
-0.98539776 0.52162975 0.3047162 4278821823
-0.97470653 0.52130532 0.30500144 4278821823
-0.96490723 0.52161014 0.3053419 4278821823
-0.95396709 0.5220207 0.30524188 4278821823
-0.94446945 0.52110982 0.30662611 4278821823
-0.93588084 0.5211919 0.3057676 4278821823
-0.92480814 0.52015704 0.30916309 4278821823
-0.91527766 0.52034783 0.30621147 4278821823
-0.90626645 0.52051198 0.30602378 4278821823
-0.88332134 0.52104896 0.30716947 4278821823
-0.87816572 0.52123082 0.30838788 4278821823
-1.0833797 0.55678189 0.30541641 4278821823
-1.082581 0.56487483 0.30635124 4278821823
-1.0767926 0.56694692 0.30515644 4278821823
-1.0807898 0.5714823 0.30634126 4278821823
-1.0762699 0.5750109 0.30475673 4278821823
-1.0746191 0.58524525 0.30502662 4278821823
-1.0694062 0.5883379 0.30516541 4278821823
-1.0754451 0.59473717 0.30505618 4278821823
-1.0696241 0.59160751 0.30798841 4278821823
-1.0805961 0.6054185 0.30724016 4278821823
-1.0757059 0.60490763 0.30492267 4278821823
-1.0803739 0.61592281 0.30232006 4278821823
-1.0758574 0.61479485 0.30470645 4278821823
-1.0692016 0.61877096 0.30681857 4278821823
-1.0809854 0.62317449 0.30129391 4278821823
-1.0743467 0.62543637 0.30529082 4278821823
-1.06902 0.62173212 0.30198649 4278821823
-1.0812886 0.63622898 0.30564728 4278821823
-1.0756743 0.63478404 0.30482811 4278821823
-1.0814431 0.64678699 0.30471566 4278821823
-1.0766164 0.64516157 0.30399644 4278821823
-1.0823512 0.65558314 0.30572718 4278821823
-1.0786959 0.65340102 0.30389604 4278821823
-1.0906227 0.66665184 0.30528855 4278821823
-1.0849752 0.66466898 0.30507049 4278821823
-1.078595 0.66129768 0.30109113 4278821823
-1.0905941 0.67389512 0.30304679 4278821823
-1.0863949 0.67549968 0.30468306 4278821823
