# .PCD v0.7 - Point Cloud Data file format
VERSION 0.7
FIELDS x y z rgba
SIZE 4 4 4 4
TYPE F F F U
COUNT 1 1 1 1
WIDTH 1089
HEIGHT 1
VIEWPOINT 0 0 0 1 0 0 0
POINTS 1089
DATA ascii
-1.1039914 0.51579911 0.49321389 4282476545
-1.093834 0.5151248 0.49417779 4282476545
-1.0857368 0.51436621 0.49585146 4282476545
-1.0748514 0.51713014 0.49366984 4282476545
-1.0630307 0.51901788 0.49453604 4282476545
-1.0407951 0.51772934 0.49789357 4282476545
-1.0327239 0.51856291 0.4965249 4282476545
-1.0256025 0.51895159 0.49517354 4282476545
-1.0151066 0.51753503 0.49569836 4282476545
-1.0050633 0.51501232 0.49425662 4282476545
-0.99552703 0.51566339 0.49155402 4282476545
-0.98507464 0.51958978 0.49640042 4282476545
-0.95475334 0.51920706 0.49497911 4282476545
-0.94872034 0.51945329 0.49507654 4282476545
-0.93420964 0.51737577 0.49451187 4282476545
-0.92593217 0.51561302 0.49564505 4282476545
-0.91484386 0.51544124 0.49674991 4282476545
-0.9052254 0.51554358 0.49544197 4282476545
-0.89635056 0.51569366 0.49217165 4282476545
-0.8738023 0.5175221 0.49551165 4282476545
-0.86523938 0.5171383 0.49318695 4282476545
-0.85631609 0.51439214 0.49434698 4282476545
-0.84746134 0.51254481 0.49459833 4282476545
-1.1282022 0.52146125 0.49486989 4282476545
-1.119058 0.52092367 0.49555063 4282476545
-1.0458146 0.52124572 0.49473408 4282476545
-1.0329216 0.52134448 0.49349278 4282476545
-1.0257992 0.52172089 0.49215481 4282476545
-0.97544658 0.5205406 0.49876392 4282476545
-0.96523762 0.52277684 0.49394441 4282476545
-0.95513916 0.52194881 0.49485701 4282476545
-0.94184762 0.52026838 0.49653831 4282476545
-0.93479997 0.52152729 0.494418 4282476545
-0.8844372 0.52256483 0.49609423 4282476545
-0.87816358 0.52172202 0.49492636 4282476545
-1.1092441 0.56569958 0.49482283 4282476545
-1.1106622 0.57563335 0.49468392 4282476545
-1.1097703 0.57015789 0.49310693 4282476545
-1.1119946 0.58524537 0.49395233 4282476545
-1.1047993 0.58875334 0.49995878 4282476545
-1.1132624 0.59466636 0.49266571 4282476545
-1.1056393 0.59529531 0.4984594 4282476545
-1.1148398 0.60443634 0.49526528 4282476545
-1.1064837 0.60072345 0.49942565 4282476545
-1.1164432 0.61542046 0.4956432 4282476545
-1.1177126 0.62444162 0.49524143 4282476545
-1.1200455 0.63958132 0.49760187 4282476545
-1.1191163 0.63454682 0.49451551 4282476545
-1.1206748 0.645491 0.49430391 4282476545
-1.1220618 0.6548236 0.49499181 4282476545
-1.123534 0.66508913 0.49494845 4282476545
-1.1250379 0.67534441 0.49540216 4282476545
-1.126393 0.6846872 0.49559295 4282476545
-1.127874 0.69521195 0.49512425 4282476545
-1.1293551 0.7057367 0.49465549 4282476545
-1.1345643 0.71381521 0.49463028 4282476545
-1.1299845 0.71164632 0.49135756 4282476545
-1.1321677 0.72531235 0.49465069 4282476545
-1.1336553 0.7354089 0.49520156 4282476545
-1.1433899 0.74630451 0.49624059 4282476545
-1.1346828 0.74287587 0.49451879 4282476545
-1.144513 0.75449103 0.49544036 4282476545
-1.1460012 0.76506662 0.49496934 4282476545
-1.1474895 0.77564216 0.49449837 4282476545
-1.1487651 0.78470695 0.49409464 4282476545
-1.1505274 0.79631066 0.49551833 4282476545
-1.1496674 0.79147935 0.49303067 4282476545
-1.1517988 0.80518144 0.49546981 4282476545
-1.1614498 0.81628877 0.49479818 4282476545
-1.1531522 0.81386119 0.49706537 4282476545
-1.1627331 0.82499355 0.49528599 4282476545
-1.173223 0.83481771 0.49477661 4282476545
-1.1635877 0.83106583 0.4950155 4282476545
-1.1745085 0.84478676 0.49257225 4282476545
-1.165943 0.84635186 0.49739876 4282476545
-1.1764185 0.85734308 0.49415845 4282476545
-1.1670954 0.85483199 0.49640828 4282476545
-1.1859655 0.86765581 0.49363711 4282476545
-1.1775502 0.86429065 0.49615943 4282476545
-1.187292 0.87579989 0.49598277 4282476545
-1.196465 0.88320398 0.49612212 4282476545
-1.1881497 0.88336098 0.49255073 4282476545
-1.1367308 0.51907265 0.50645363 4282476545
-1.1283287 0.51725346 0.50583935 4282476545
-1.1138763 0.51761025 0.5059641 4282476545
-1.1028042 0.51634413 0.5046078 4282476545
-1.0945898 0.51548851 0.50473183 4282476545
-0.99428099 0.51926839 0.5076189 4282476545
-0.98973638 0.51945019 0.50284213 4282476545
-0.96242666 0.51882309 0.50459927 4282476545
-0.95544577 0.51954031 0.50464886 4282476545
-0.94757092 0.51929718 0.50474995 4282476545
-0.93489349 0.51753676 0.50442493 4282476545
-0.92533833 0.51619053 0.50574279 4282476545
-0.9153747 0.5154891 0.5046097 4282476545
-0.90743858 0.51628685 0.50534493 4282476545
-0.89757848 0.51874405 0.50401706 4282476545
-0.87415463 0.51763314 0.50435561 4282476545
-0.86399239 0.51689637 0.5053789 4282476545
-0.85628378 0.51456606 0.50433677 4282476545
-0.84819764 0.51289916 0.50488049 4282476545
-1.1286482 0.52025294 0.50416547 4282476545
-0.98294133 0.52015191 0.50571531 4282476545
-0.97438568 0.5207988 0.50507545 4282476545
-0.9655689 0.52128667 0.50389838 4282476545
-0.94243604 0.52055144 0.50475526 4282476545
-0.93546563 0.52134323 0.50480151 4282476545
-0.88500321 0.52283716 0.5039981 4282476545
-0.87882107 0.52203846 0.50410908 4282476545
-1.1103235 0.56762069 0.50687623 4282476545
-1.1097349 0.5652349 0.50318909 4282476545
-1.1112132 0.57445669 0.50548792 4282476545
-1.1129711 0.58571529 0.50758773 4282476545
-1.1044235 0.58522469 0.50192797 4282476545
-1.1142405 0.59473646 0.507186 4282476545
-1.1058574 0.59484231 0.50270766 4282476545
-1.1156131 0.60520893 0.50520217 4282476545
-1.1066997 0.60082734 0.50244111 4282476545
-1.1170942 0.61573368 0.50473344 4282476545
-1.1183636 0.62475485 0.50433165 4282476545
-1.120405 0.6380021 0.50639713 4282476545
-1.1194813 0.63290197 0.50353527 4282476545
-1.1214343 0.6458565 0.50490922 4282476545
-1.1227267 0.65460831 0.50542986 4282476545
-1.124216 0.66503501 0.50529653 4282476545
-1.1257117 0.67538828 0.50541478 4282476545
-1.127044 0.68500048 0.50468326 4282476545
-1.1283764 0.69461268 0.50395167 4282476545
-1.1303546 0.70726889 0.50634682 4282476545
-1.1295124 0.70254165 0.50390196 4282476545
-1.1313841 0.71512324 0.50485903 4282476545
-1.1326764 0.72387499 0.50537968 4282476545
-1.1428283 0.73818702 0.50531471 4282476545
-1.1340317 0.73321784 0.50557059 4282476545
-1.1438915 0.74574101 0.50497836 4282476545
-1.145167 0.75480574 0.50457454 4282476545
-1.1465776 0.76495975 0.5038451 4282476545
-1.1481621 0.77516109 0.50562829 4282476545
-1.1501715 0.78820068 0.50766134 4282476545
-1.1493995 0.78444886 0.50416917 4282476545
-1.1509128 0.79419142 0.50586981 4282476545
-1.1524011 0.80476707 0.50539881 4282476545
-1.1621451 0.81621903 0.50537962 4282476545
-1.1536319 0.81409198 0.50376379 4282476545
-1.1632808 0.82525706 0.5029344 4282476545
-1.155383 0.8245123 0.50756884 4282476545
-1.1737736 0.83508271 0.5024662 4282476545
-1.1646202 0.83368552 0.50485706 4282476545
-1.156446 0.8320663 0.50723243 4282476545
-1.1751724 0.84429312 0.50359631 4282476545
-1.1664052 0.84554499 0.50606984 4282476545
-1.1775405 0.85966158 0.50599241 4282476545
-1.1677636 0.85546225 0.50507104 4282476545
-1.1869822 0.86993217 0.50398219 4282476545
-1.1783996 0.86576653 0.50572044 4282476545
-1.1878917 0.87551671 0.50559062 4282476545
-1.1890349 0.88378698 0.50491279 4282476545
-1.1370158 0.51706529 0.51505494 4282476545
-1.1273509 0.51671779 0.51510864 4282476545
-1.1143184 0.51640987 0.51518291 4282476545
-1.1035637 0.51670957 0.51521313 4282476545
-1.0955561 0.51734841 0.51521921 4282476545
-0.99356318 0.51922637 0.51516706 4282476545
-0.98315275 0.5176518 0.51427627 4282476545
-0.97323418 0.51842839 0.51569301 4282476545
-0.96310443 0.51863563 0.51517105 4282476545
-0.95483559 0.51885617 0.51519698 4282476545
-0.94622302 0.51904565 0.51165235 4282476545
-0.9347325 0.51858515 0.51493806 4282476545
-0.92706209 0.51575691 0.51445609 4282476545
-0.91218227 0.51636153 0.51559108 4282476545
-0.90591711 0.51584053 0.51385969 4282476545
-0.89110947 0.51995832 0.51067507 4282476545
-0.88511634 0.51801658 0.51608676 4282476545
-0.87678057 0.51694411 0.51485705 4282476545
-0.86367655 0.51732469 0.51490813 4282476545
-0.8553617 0.51638848 0.51369888 4282476545
-0.84807491 0.516536 0.5154525 4282476545
-1.1376642 0.52138036 0.51548177 4282476545
-0.98374689 0.52053952 0.5169642 4282476545
-0.9702 0.52109063 0.51000208 4282476545
-0.96321177 0.52176887 0.51002777 4282476545
-0.95009971 0.52011704 0.51433909 4282476545
-0.94302446 0.52083462 0.51297218 4282476545
-0.93618149 0.52168769 0.51479745 4282476545
-0.89148837 0.52014071 0.5159663 4282476545
-0.88538998 0.52058583 0.51465297 4282476545
-0.87935811 0.52108318 0.51422429 4282476545
-1.1126647 0.56628013 0.51451051 4282476545
-1.1119549 0.57503206 0.51537442 4282476545
-1.1134505 0.58538532 0.51549274 4282476545
-1.1147829 0.59499747 0.51476121 4282476545
-1.1161155 0.60460967 0.51402962 4282476545
-1.1177309 0.6153931 0.51502001 4282476545
-1.1191231 0.62512034 0.51493698 4282476545
-1.1205812 0.63458264 0.51641226 4282476545
-1.1197524 0.63102996 0.511639 4282476545
-1.1219822 0.64471841 0.51558149 4282476545
-1.1234633 0.65524316 0.5151127 4282476545
-1.1247327 0.66426426 0.51471096 4282476545
-1.1262139 0.67478901 0.51424223 4282476545
-1.1362593 0.68572873 0.51984864 4282476545
-1.1277353 0.68507826 0.51488751 4282476545
-1.129073 0.69438714 0.51488674 4282476545
-1.1307399 0.70538354 0.51619029 4282476545
-1.1297023 0.70029676 0.51158881 4282476545
-1.1321435 0.71548873 0.51546437 4282476545
-1.1422123 0.7280311 0.51796466 4282476545
-1.1334131 0.72450984 0.51506257 4282476545
-1.1430315 0.73511553 0.51498085 4282476545
-1.134414 0.732701 0.51242173 4282476545
-1.1444107 0.74496657 0.51443821 4282476545
-1.1459302 0.75517303 0.51523113 4282476545
-1.1472057 0.76423782 0.51482743 4282476545
-1.1488031 0.77486581 0.51587874 4282476545
-1.1504439 0.78631973 0.51580429 4282476545
-1.1497571 0.78236735 0.51401997 4282476545
-1.151567 0.79450619 0.5150041 4282476545
-1.1530552 0.80508178 0.5145331 4282476545
-1.1624459 0.81409931 0.51446193 4282476545
-1.1643763 0.82578421 0.51823127 4282476545
-1.1557101 0.82466966 0.51213598 4282476545
-1.1749797 0.8370859 0.51623964 4282476545
-1.1654608 0.83479774 0.51507223 4282476545
-1.1566659 0.83170253 0.51131445 4282476545
-1.1764307 0.84703302 0.51656669 4282476545
-1.1667988 0.84393322 0.51545322 4282476545
-1.1774784 0.85497493 0.51516283 4282476545
-1.1871092 0.86570436 0.51500386 4282476545
-1.1785785 0.86229539 0.51588696 4282476545
-1.1968985 0.87670916 0.51662582 4282476545
-1.188187 0.873689 0.51396036 4282476545
-1.1976564 0.88234085 0.51585674 4282476545
-1.1894776 0.88399994 0.51109374 4282476545
-1.137569 0.51733148 0.52278119 4282476545
-1.1228642 0.51859939 0.52348465 4282476545
-1.112442 0.51792532 0.52427268 4282476545
-1.1042147 0.51702285 0.52430338 4282476545
-1.0962039 0.51766014 0.52426553 4282476545
-0.99096012 0.51742542 0.52556717 4282476545
-0.98395824 0.51803946 0.52552515 4282476545
-0.97393435 0.51876539 0.52547175 4282476545
-0.96391737 0.51954043 0.5254162 4282476545
-0.94352454 0.51854122 0.52541864 4282476545
-0.93430275 0.51744765 0.52613097 4282476545
-0.92672265 0.51475984 0.52453363 4282476545
-0.91094375 0.51728123 0.52540743 4282476545
-0.90474188 0.51638407 0.52543479 4282476545
-0.88463438 0.51797926 0.527165 4282476545
-0.87579417 0.51817715 0.52398127 4282476545
-0.86395234 0.51770604 0.52473247 4282476545
-0.85523194 0.51822436 0.52602166 4282476545
-0.84434766 0.51855421 0.52606636 4282476545
-1.1369164 0.52155572 0.52413666 4282476545
-1.1212124 0.52196032 0.52563453 4282476545
-0.99135476 0.52022898 0.52544236 4282476545
-0.95390874 0.52037531 0.52535796 4282476545
-0.94390702 0.52125937 0.52529752 4282476545
-0.8923409 0.52055091 0.52787149 4282476545
-0.88620442 0.52179021 0.52427447 4282476545
-0.87985909 0.52132428 0.52122062 4282476545
-0.86599857 0.52026546 0.52821428 4282476545
-0.84467155 0.52186751 0.52378255 4282476545
-1.1116254 0.5682472 0.52505678 4282476545
-1.1124718 0.57426137 0.52478886 4282476545
-1.1139528 0.584786 0.52432019 4282476545
-1.1155514 0.59562206 0.52494109 4282476545
-1.1168119 0.60438412 0.52496469 4282476545
-1.1182791 0.61450166 0.52516437 4282476545
-1.1202542 0.62776715 0.52619928 4282476545
-1.1195853 0.62366068 0.52501667 4282476545
-1.121152 0.63450694 0.52514052 4282476545
-1.1226331 0.64503163 0.52467173 4282476545
-1.1241142 0.65555644 0.524203 4282476545
-1.1254922 0.66462976 0.5253163 4282476545
-1.1269733 0.67515451 0.52484751 4282476545
-1.1364774 0.68583363 0.52289337 4282476545
-1.1285371 0.68536854 0.52628928 4282476545
-1.130204 0.69703394 0.52614915 4282476545
-1.1295351 0.69292742 0.52496636 4282476545
-1.1313134 0.70527726 0.52502334 4282476545
-1.1413208 0.71844697 0.52525264 4282476545
-1.1327145 0.71541309 0.52419257 4282476545
-1.1422231 0.72521937 0.5241887 4282476545
-1.1436168 0.73459685 0.52487987 4282476545
-1.1450959 0.74491221 0.5248363 4282476545
-1.1466933 0.75554019 0.52588773 4282476545
-1.1479688 0.76460499 0.52548391 4282476545
-1.1502039 0.77976543 0.52633345 4282476545
-1.149308 0.77426362 0.52474886 4282476545
-1.1509452 0.78575611 0.52454197 4282476545
-1.152221 0.7948209 0.52413821 4282476545
-1.1620371 0.80626017 0.52522898 4282476545
-1.1534276 0.80291355 0.52479428 4282476545
-1.163272 0.81534606 0.52416772 4282476545
-1.1549957 0.81164956 0.52948755 4282476545
-1.1647103 0.82452965 0.52594739 4282476545
-1.1662966 0.83600861 0.52499837 4282476545
-1.1578631 0.83274829 0.5270232 4282476545
-1.1769814 0.84729791 0.52425635 4282476545
-1.1674615 0.84389824 0.52546769 4282476545
-1.1869155 0.85846281 0.52770734 4282476545
-1.1780028 0.85419255 0.52471948 4282476545
-1.187639 0.864887 0.52471292 4282476545
-1.1788584 0.86124438 0.52235168 4282476545
-1.1972839 0.87580013 0.52436703 4282476545
-1.1885489 0.87182987 0.52339774 4282476545
-1.2075963 0.88227379 0.52841729 4282476545
-1.1981245 0.88227874 0.52301228 4282476545
-1.1214423 0.51924044 0.53494787 4282476545
-1.1132673 0.51916754 0.53397548 4282476545
-1.1046486 0.51723164 0.53036356 4282476545
-0.99464446 0.51712793 0.53591293 4282476545
-0.98453218 0.51744831 0.53540927 4282476545
-0.97398913 0.51910019 0.53468466 4282476545
-0.9645161 0.51918656 0.53516144 4282476545
-0.95401728 0.51787663 0.53237307 4282476545
-0.94401491 0.51877719 0.53226608 4282476545
-0.93505383 0.51628107 0.53232038 4282476545
-0.91151965 0.51755828 0.53344858 4282476545
-0.90541095 0.51670599 0.53477764 4282476545
-0.89583081 0.51638716 0.53604001 4282476545
-0.88290024 0.51668358 0.53634256 4282476545
-0.87551844 0.51695871 0.5338636 4282476545
-0.86425787 0.51818466 0.53696442 4282476545
-0.85459328 0.51742887 0.5363822 4282476545
-0.84486848 0.51841015 0.53419048 4282476545
-1.1357138 0.52161193 0.53432816 4282476545
-1.1218696 0.52227658 0.53481269 4282476545
-1.113843 0.52282494 0.53472739 4282476545
-1.1055057 0.52044749 0.53628981 4282476545
-1.0974888 0.52106833 0.53619403 4282476545
-0.95742416 0.52049232 0.53227663 4282476545
-0.9119851 0.52150208 0.53193069 4282476545
-0.89262509 0.52068764 0.53183991 4282476545
-0.88661623 0.52117592 0.53177804 4282476545
-0.86243558 0.52086508 0.534226 4282476545
-0.85747379 0.52098751 0.53547072 4282476545
-1.1122763 0.56856042 0.53414702 4282476545
-1.1132401 0.5748859 0.53496879 4282476545
-1.1147124 0.58515149 0.5349254 4282476545
-1.1162161 0.59540683 0.53537905 4282476545
-1.1175714 0.60474962 0.53556991 4282476545
-1.1190525 0.61527437 0.53510123 4282476545
-1.1206135 0.62618792 0.53499448 4282476545
-1.1198933 0.62268752 0.53173637 4282476545
-1.121803 0.63482022 0.53423071 4282476545
-1.1233461 0.64537472 0.53462774 4282476545
-1.1248336 0.65547121 0.53517854 4282476545
-1.1262517 0.66499519 0.53592163 4282476545
-1.1275841 0.6746074 0.53518999 4282476545
-1.1290797 0.68496066 0.53530824 4282476545
-1.1305634 0.69545472 0.53494436 4282476545
-1.1298431 0.69195431 0.53168613 4282476545
-1.1403295 0.70646733 0.53620499 4282476545
-1.1334679 0.70379376 0.53354084 4282476545
-1.1415892 0.71565849 0.53528744 4282476545
-1.1328053 0.71300375 0.53074867 4282476545
-1.1429862 0.72558659 0.53484523 4282476545
-1.1442846 0.73438072 0.53536832 4282476545
-1.1458591 0.74527949 0.5354929 4282476545
-1.1473473 0.75585502 0.5350219 4282476545
-1.148623 0.76491976 0.53461814 4282476545
-1.1503239 0.77700615 0.53407985 4282476545
-1.1495998 0.77215064 0.53368622 4282476545
-1.1515869 0.78526008 0.53523701 4282476545
-1.1613085 0.79600281 0.53641003 4282476545
-1.1526928 0.79384077 0.53333008 4282476545
-1.1622672 0.80354041 0.53454232 4282476545
-1.1545868 0.80441028 0.53895819 4282476545
-1.1641377 0.81647027 0.53473252 4282476545
-1.1556185 0.81300563 0.53590715 4282476545
-1.1744922 0.82445198 0.53616589 4282476545
-1.1648953 0.82207125 0.53402346 4282476545
-1.166863 0.83547246 0.53465217 4282476545
-1.1775843 0.84829956 0.53114307 4282476545
-1.1681447 0.84458089 0.53424656 4282476545
-1.1873056 0.85793567 0.53469515 4282476545
-1.1785825 0.85411578 0.53357953 4282476545
-1.1691087 0.85070586 0.53550577 4282476545
-1.188332 0.8648631 0.53516042 4282476545
-1.2072757 0.87826872 0.53224319 4282476545
-1.1978841 0.87526828 0.53452009 4282476545
-1.1893479 0.87164247 0.53578705 4282476545
-1.2079315 0.88243514 0.53309977 4282476545
-1.1991073 0.88160253 0.53921396 4282476545
-1.1472696 0.51765805 0.54609317 4282476545
-1.1353209 0.51843387 0.54743433 4282476545
-1.1221571 0.51887673 0.54645437 4282476545
-0.99588227 0.5178141 0.54540765 4282476545
-0.98534983 0.51818877 0.5460791 4282476545
-0.97566885 0.51900965 0.54445618 4282476545
-0.91238809 0.51673627 0.54824996 4282476545
-0.90413767 0.51720911 0.54497015 4282476545
-0.89694643 0.51575315 0.54351342 4282476545
-0.88331223 0.51631856 0.5447579 4282476545
-0.87490714 0.51752734 0.54625189 4282476545
-0.86543924 0.51842159 0.54549557 4282476545
-0.8561179 0.51597571 0.54546148 4282476545
-1.1478145 0.5207932 0.54750848 4282476545
-1.1314014 0.52157784 0.54261363 4282476545
-1.1224173 0.52254015 0.5424611 4282476545
-1.1140718 0.52011812 0.54399616 4282476545
-1.1061567 0.52076077 0.54538006 4282476545
-1.0956039 0.52258867 0.54514414 4282476545
-0.96530861 0.52020991 0.54484534 4282476545
-1.1130358 0.56892586 0.54475224 4282476545
-1.1139048 0.57467061 0.54540682 4282476545
-1.1153231 0.58460438 0.54526794 4282476545
-1.1168185 0.59495765 0.54538614 4282476545
-1.1182222 0.6050629 0.54466027 4282476545
-1.1201265 0.61859465 0.54405761 4282476545
-1.1194118 0.61369503 0.54389644 4282476545
-1.121172 0.62530524 0.54527605 4282476545
-1.1225625 0.63518566 0.54483604 4282476545
-1.1238546 0.64393747 0.54535663 4282476545
-1.1254215 0.65478373 0.54548055 4282476545
-1.1269025 0.66530836 0.54501176 4282476545
-1.1281722 0.67432964 0.54461002 4282476545
-1.1301469 0.6883626 0.54398507 4282476545
-1.1293616 0.68296188 0.54384625 4282476545
-1.1401404 0.69886434 0.54975766 4282476545
-1.1333491 0.69623154 0.5446828 4282476545
-1.1231067 0.6938138 0.54813087 4282476545
-1.1407322 0.70503914 0.54532439 4282476545
-1.1319752 0.70279229 0.54030764 4282476545
-1.1421003 0.71459651 0.54524529 4282476545
-1.1436861 0.72536004 0.54583317 4282476545
-1.1445961 0.73293424 0.54315799 4282476545
-1.1372792 0.73664951 0.5468924 4282476545
-1.1465131 0.7455942 0.54462707 4282476545
-1.1379102 0.74209291 0.54462677 4282476545
-1.1477889 0.75465888 0.54422337 4282476545
-1.1501384 0.76846594 0.54970723 4282476545
-1.1493177 0.7649979 0.54487175 4282476545
-1.1507301 0.7746408 0.54527396 4282476545
-1.1499095 0.77117276 0.54043847 4282476545
-1.1521763 0.78461498 0.54546946 4282476545
-1.1537472 0.79555541 0.54545134 4282476545
-1.1550229 0.80462021 0.54504758 4282476545
-1.1649566 0.81757194 0.54464167 4282476545
-1.1562984 0.81368488 0.54464394 4282476545
-1.1751684 0.82626796 0.54239279 4282476545
-1.1659074 0.82400495 0.54503608 4282476545
-1.1758826 0.83182889 0.54111838 4282476545
-1.1677611 0.83653367 0.54583997 4282476545
-1.1783552 0.84867054 0.54190856 4282476545
-1.1689115 0.84494978 0.54495436 4282476545
-1.1866825 0.85835147 0.54470283 4282476545
-1.1769048 0.85439372 0.54509282 4282476545
-1.1698755 0.85107481 0.54621363 4282476545
-1.1891065 0.86523581 0.54597712 4282476545
-1.1905564 0.87532836 0.54596984 4282476545
-1.1898592 0.87131661 0.54415876 4282476545
-1.1914804 0.88210446 0.54522592 4282476545
-1.1439142 0.51821411 0.55531269 4282476545
-1.134625 0.51722062 0.5547998 4282476545
-1.122439 0.51688957 0.55496907 4282476545
-0.99638909 0.51805806 0.5524863 4282476545
-0.98607278 0.51905698 0.55505335 4282476545
-0.97489536 0.51888204 0.55482614 4282476545
-0.91352898 0.51594192 0.55568516 4282476545
-0.90317887 0.51557535 0.55436122 4282476545
-0.89349645 0.51621151 0.55456138 4282476545
-0.88541842 0.51686448 0.55347818 4282476545
-0.87518781 0.51766235 0.55017084 4282476545
-0.86511558 0.51807827 0.55440104 4282476545
-0.85773164 0.51414543 0.55408931 4282476545
-1.1436731 0.5219689 0.55575335 4282476545
-1.1068076 0.521074 0.5544703 4282476545
-1.0912294 0.52478302 0.55579597 4282476545
-0.99357998 0.52129984 0.55651766 4282476545
-0.98656619 0.52189624 0.55633515 4282476545
-0.87404966 0.5206821 0.55696404 4282476545
-0.86692053 0.52128768 0.55503124 4282476545
-1.1137953 0.56929135 0.55535758 4282476545
-1.1232409 0.578053 0.55666292 4282476545
-1.1146415 0.57530552 0.55508971 4282476545
-1.116001 0.58517087 0.5542168 4282476545
-1.1173922 0.59485137 0.55421925 4282476545
-1.1189817 0.60542828 0.55526555 4282476545
-1.1204913 0.6156162 0.55594981 4282476545
-1.1197711 0.61211586 0.55269164 4282476545
-1.1217586 0.62466341 0.55545938 4282476545
-1.1233219 0.6355511 0.55544132 4282476545
-1.1245914 0.64457226 0.55503953 4282476545
-1.1260725 0.65509695 0.55457079 4282476545
-1.1275535 0.6656217 0.55410212 4282476545
-1.1289315 0.67469507 0.55521536 4282476545
-1.1313399 0.68652636 0.55571544 4282476545
-1.1297209 0.68138266 0.55264145 4282476545
-1.1404501 0.69788653 0.55650985 4282476545
-1.1396551 0.69252735 0.55613869 4282476545
-1.1414269 0.70511734 0.55557799 4282476545
-1.1427026 0.71418214 0.55517423 4282476545
-1.1442324 0.72534114 0.55406737 4282476545
-1.1362393 0.72446817 0.55755067 4282476545
-1.145897 0.73543817 0.55727696 4282476545
-1.1376064 0.73633975 0.55246985 4282476545
-1.1473237 0.74578303 0.55638063 4282476545
-1.1386644 0.74385744 0.55213505 4282476545
-1.1485521 0.75502616 0.5548799 4282476545
-1.1504481 0.76748812 0.55645949 4282476545
-1.1497759 0.76336175 0.55527103 4282476545
-1.1514249 0.774719 0.55552751 4282476545
-1.152913 0.78529453 0.55505657 4282476545
-1.1544013 0.79587018 0.55458552 4282476545
-1.1641184 0.80726177 0.55429304 4282476545
-1.1556238 0.80455726 0.55419862 4282476545
-1.1654029 0.81566381 0.55545086 4282476545
-1.1567373 0.81319189 0.55228937 4282476545
-1.1666183 0.82446808 0.55470526 4282476545
-1.1681327 0.83455938 0.5556699 4282476545
-1.170215 0.84840763 0.55705667 4282476545
-1.1695249 0.84443629 0.55526382 4282476545
-1.1804148 0.85819894 0.55226618 4282476545
-1.1710433 0.85559952 0.55397874 4282476545
-1.1630199 0.85494864 0.55652845 4282476545
-1.1845961 0.86519432 0.55434567 4282476545
-1.1721377 0.8620702 0.55644816 4282476545
-1.1910653 0.87475634 0.5548389 4282476545
-1.1824634 0.87056792 0.55633616 4282476545
-1.1921443 0.88242388 0.55449742 4282476545
-1.1405567 0.5187692 0.56450295 4282476545
-1.1322988 0.51774102 0.56434852 4282476545
-1.1230963 0.51720577 0.56414717 4282476545
-1.0839243 0.51990134 0.56305116 4282476545
-1.0758162 0.51782048 0.56741047 4282476545
-1.0641751 0.51868993 0.56557393 4282476545
-1.0526487 0.51966697 0.56522155 4282476545
-1.04533 0.51811153 0.56510282 4282476545
-1.0337898 0.51830292 0.56623626 4282476545
-1.0240371 0.51695591 0.56459689 4282476545
-1.0145545 0.5159117 0.56382143 4282476545
-1.0080366 0.51774716 0.56840783 4282476545
-0.98677754 0.51939619 0.56489605 4282476545
-0.97639281 0.51801097 0.56397915 4282476545
-0.90281248 0.51611912 0.56541306 4282476545
-0.89425421 0.51657617 0.56514382 4282476545
-0.88523257 0.51734507 0.56484306 4282476545
-0.87030369 0.51877302 0.56563812 4282476545
-0.86468238 0.51809728 0.56377327 4282476545
-0.85748667 0.51481658 0.56415445 4282476545
-1.1424738 0.52278286 0.56436008 4282476545
-1.1159251 0.52100992 0.56987637 4282476545
-1.1075671 0.52143943 0.56507564 4282476545
-1.0950019 0.52244633 0.56535178 4282476545
-1.0844314 0.52180409 0.56655753 4282476545
-1.0761249 0.52072001 0.56579238 4282476545
-1.0679038 0.52136278 0.56258571 4282476545
-1.0457063 0.52009261 0.56647599 4282476545
-1.0338831 0.52102852 0.56176221 4282476545
-1.0233287 0.52169687 0.56146973 4282476545
-0.99418688 0.52159184 0.56499273 4282476545
-0.98574972 0.52178437 0.56559193 4282476545
-0.97575837 0.52015722 0.56502396 4282476545
-0.87057388 0.52131009 0.56422234 4282476545
-1.1221943 0.56628138 0.56633544 4282476545
-1.1142292 0.56950015 0.56141776 4282476545
-1.123677 0.57826281 0.56275243 4282476545
-1.1152924 0.57561874 0.56418008 4282476545
-1.1242113 0.58133692 0.5641402 4282476545
-1.1168249 0.58538938 0.56610519 4282476545
-1.1181515 0.59521675 0.56482446 4282476545
-1.1202729 0.60885298 0.56725192 4282476545
-1.1195892 0.60491961 0.56547624 4282476545
-1.1210107 0.614815 0.56546903 4282476545
-1.1224917 0.62533957 0.56500036 4282476545
-1.1239729 0.63586438 0.56453156 4282476545
-1.1252424 0.64488554 0.56412977 4282476545
-1.1267103 0.65480316 0.56477195 4282476545
-1.1282231 0.66514289 0.56517851 4282476545
-1.1302226 0.67811978 0.56720173 4282476545
-1.1295391 0.67418635 0.56542599 4282476545
-1.1325676 0.68411243 0.56515992 4282476545
-1.1407421 0.69577348 0.56544727 4282476545
-1.1358806 0.69020987 0.56526434 4282476545
-1.142081 0.70543218 0.56471217 4282476545
-1.1433567 0.71449685 0.5643084 4282476545
-1.1453791 0.72814655 0.56522524 4282476545
-1.1367817 0.72472924 0.56512588 4282476545
-1.1464421 0.73570055 0.56488883 4282476545
-1.1477407 0.74449462 0.56541198 4282476545
-1.1476114 0.75496799 0.56519723 4282476545
-1.1508862 0.76713562 0.56379378 4282476545
-1.1427115 0.76542896 0.56634802 4282476545
-1.1520789 0.77503371 0.56466174 4282476545
-1.1533544 0.78409851 0.56425804 4282476545
-1.1549724 0.79501826 0.56499141 4282476545
-1.1564401 0.80530214 0.56483841 4282476545
-1.1660228 0.81619793 0.56359798 4282476545
-1.1577059 0.8137362 0.56564862 4282476545
-1.1673447 0.82438213 0.5657869 4282476545
-1.1688401 0.83500862 0.56531364 4282476545
-1.1704887 0.84651756 0.56523877 4282476545
-1.1697987 0.84254622 0.56344587 4282476545
-1.1720445 0.85777968 0.56429946 4282476545
-1.163565 0.85521096 0.56414032 4282476545
-1.1822463 0.86558491 0.56381947 4282476545
-1.1726865 0.86205131 0.564722 4282476545
-1.2002301 0.87927002 0.56108725 4282476545
-1.1917292 0.87507576 0.56411046 4282476545
-1.1830142 0.87083286 0.56402588 4282476545
-1.2006638 0.88235158 0.56094998 4282476545
-1.1932716 0.88475341 0.56638771 4282476545
-1.1413312 0.51914191 0.57531977 4282476545
-1.1332846 0.5196383 0.57504606 4282476545
-1.0916355 0.51998103 0.57223898 4282476545
-1.0844698 0.51739943 0.5766291 4282476545
-1.0763484 0.5180766 0.57484382 4282476545
-1.0648094 0.51899511 0.57443076 4282476545
-1.0531735 0.51991951 0.57254958 4282476545
-1.0459257 0.51749808 0.57536024 4282476545
-1.0353159 0.51661235 0.57505584 4282476545
-1.0234523 0.51643068 0.57467568 4282476545
-1.0154731 0.5174135 0.57436574 4282476545
-1.0085468 0.51799279 0.57553446 4282476545
-0.9743132 0.5179103 0.57856464 4282476545
-0.89472789 0.5168041 0.57175779 4282476545
-0.88408852 0.51733524 0.57504356 4282476545
-0.87687624 0.51726627 0.57635504 4282476545
-0.86493254 0.51919043 0.57529604 4282476545
-0.85665989 0.51715082 0.57406074 4282476545
-1.1429311 0.52330238 0.57516313 4282476545
-1.1242905 0.52061093 0.57471979 4282476545
-1.1164876 0.52240741 0.57530302 4282476545
-1.1043111 0.52211195 0.57553774 4282476545
-1.0921447 0.52189189 0.57576036 4282476545
-1.0847801 0.5203132 0.57500309 4282476545
-1.0765507 0.52092493 0.57173902 4282476545
-1.0535933 0.52012146 0.57841206 4282476545
-1.0463333 0.52039433 0.57523125 4282476545
-0.99489492 0.52193254 0.5748803 4282476545
-0.98436707 0.52283567 0.57448107 4282476545
-0.97462702 0.52174675 0.57500267 4282476545
-0.96729618 0.52116638 0.57260132 4282476545
-0.87103963 0.5215342 0.57072651 4282476545
-0.86512554 0.52215952 0.57179081 4282476545
-1.1229531 0.56777328 0.57450241 4282476545
-1.1161366 0.57658559 0.57475847 4282476545
-1.11743 0.5850575 0.57589853 4282476545
-1.1187623 0.5946697 0.575167 4282476545
-1.1205441 0.6069811 0.57535565 4282476545
-1.1197574 0.60159636 0.57516193 4282476545
-1.1216617 0.61512822 0.57455927 4282476545
-1.122931 0.62414932 0.57415748 4282476545
-1.1245207 0.63472617 0.57520378 4282476545
-1.1260017 0.64525098 0.57473505 4282476545
-1.1273798 0.65432429 0.57584834 4282476545
-1.1368885 0.66419995 0.57569677 4282476545
-1.128702 0.66372144 0.57542986 4282476545
-1.1345619 0.67636931 0.57531559 4282476545
-1.1298102 0.67231452 0.57352978 4282476545
-1.1402929 0.68766975 0.57617617 4282476545
-1.1396059 0.68371737 0.5743919 4282476545
-1.1412469 0.6951713 0.5743174 4282476545
-1.142735 0.70574689 0.5738464 4282476545
-1.1350075 0.70565319 0.57963181 4282476545
-1.1441197 0.71486419 0.57496506 4282476545
-1.1358539 0.7116673 0.57936394 4282476545
-1.1455677 0.72457522 0.57575226 4282476545
-1.1470704 0.7349785 0.57587111 4282476545
-1.1484809 0.74513257 0.57514167 4282476545
-1.1502907 0.75727141 0.57612574 4282476545
-1.149604 0.75331908 0.57434142 4282476545
-1.1512448 0.76477289 0.57426691 4282476545
-1.152851 0.77566141 0.57489097 4282476545
-1.1541177 0.78446573 0.57491457 4282476545
-1.1556324 0.79472893 0.57551301 4282476545
-1.1572032 0.80566931 0.57549495 4282476545
-1.1584786 0.81473416 0.57509118 4282476545
-1.1629996 0.82762623 0.57461804 4282476545
-1.1595417 0.82228822 0.57475477 4282476545
-1.1702478 0.83993185 0.5758186 4282476545
-1.1693473 0.8344034 0.57422638 4282476545
-1.1709927 0.84595138 0.57401848 4282476545
-1.1819566 0.8589409 0.57379717 4282476545
-1.172384 0.85511255 0.57514256 4282476545
-1.1916406 0.86931455 0.57520038 4282476545
-1.1829678 0.86568815 0.57442087 4282476545
-1.173519 0.86245191 0.57634765 4282476545
-1.1925036 0.87544864 0.57492709 4282476545
-1.1937197 0.88353944 0.57572752 4282476545
-1.0847908 0.51755387 0.58111107 4282476545
-1.0769893 0.51783478 0.58497941 4282476545
-1.0650603 0.51938134 0.58495462 4282476545
-1.0537087 0.51746505 0.58586961 4282476545
-1.0464534 0.51640195 0.58563912 4282476545
-1.0334253 0.51519537 0.58519006 4282476545
-1.0237716 0.51392156 0.5848763 4282476545
-1.0156884 0.51486772 0.58308268 4282476545
-1.0069531 0.51853782 0.58589029 4282476545
-0.99520838 0.51946974 0.58489281 4282476545
-0.98436207 0.51764286 0.58559906 4282476545
-0.97471255 0.51810247 0.58414143 4282476545
-0.90886116 0.51589662 0.58828372 4282476545
-0.89445114 0.51813293 0.58752602 4282476545
-0.88550049 0.51669443 0.58545566 4282476545
-0.87434316 0.5165742 0.58541137 4282476545
-0.8639974 0.51655686 0.58593005 4282476545
-0.8589952 0.51439989 0.58388758 4282476545
-1.1346245 0.52502608 0.58353442 4282476545
-1.1256992 0.52525157 0.58585012 4282476545
-1.1172279 0.5230453 0.58503276 4282476545
-1.1049606 0.52242452 0.58460605 4282476545
-1.0927044 0.52188367 0.58417588 4282476545
-1.0855291 0.52067357 0.58546096 4282476545
-1.0776153 0.52143723 0.58660567 4282476545
-1.054118 0.520374 0.58574009 4282476545
-0.99570411 0.522322 0.58618045 4282476545
-0.98643321 0.5202322 0.5845083 4282476545
-1.1231754 0.56675351 0.5800367 4282476545
-1.1165997 0.57484609 0.58545762 4282476545
-1.1180809 0.58537078 0.58498883 4282476545
-1.1193502 0.594392 0.58458704 4282476545
-1.1209915 0.60569453 0.58484232 4282476545
-1.1199797 0.60030168 0.58128911 4282476545
-1.1224209 0.6154936 0.58516461 4282476545
-1.1236906 0.62451476 0.58476287 4282476545
-1.1340399 0.63818067 0.58905315 4282476545
-1.1252027 0.63467211 0.58555198 4282476545
-1.1351007 0.64629704 0.58747196 4282476545
-1.1265464 0.64495236 0.58354914 4282476545
-1.1281207 0.65548187 0.58446747 4282476545
-1.137863 0.66637927 0.58561909 4282476545
-1.1292088 0.66321427 0.58412313 4282476545
-1.1374868 0.67580497 0.5839597 4282476545
-1.1404127 0.68491048 0.58392256 4282476545
-1.1398785 0.68183643 0.58253479 4282476545
-1.1419027 0.69501752 0.58448887 4282476545
-1.1335372 0.6923303 0.58629465 4282476545
-1.1435037 0.70470816 0.58761495 4282476545
-1.1352245 0.70575762 0.58266193 4282476545
-1.1448828 0.71523136 0.5856216 4282476545
-1.1360708 0.71177173 0.58239406 4282476545
-1.1461585 0.72429615 0.58521783 4282476545
-1.1476468 0.7348718 0.58474684 4282476545
-1.1577587 0.74900603 0.58446425 4282476545
-1.149135 0.74544728 0.58427578 4282476545
-1.1538651 0.75510234 0.58581865 4282476545
-1.1497674 0.75138557 0.580962 4282476545
-1.1525619 0.76527709 0.58483982 4282476545
-1.1535189 0.77544504 0.58537942 4282476545
-1.1548809 0.78483295 0.58557117 4282476545
-1.1562912 0.79498696 0.58484167 4282476545
-1.1577939 0.80539036 0.58496058 4282476545
-1.1591327 0.81504893 0.58422542 4282476545
-1.1606497 0.82528615 0.58491307 4282476545
-1.1598742 0.82103968 0.58243394 4282476545
-1.1704084 0.83623499 0.58619684 4282476545
-1.1640137 0.83198118 0.58449608 4282476545
-1.1715459 0.84480226 0.58479398 4282476545
-1.1731508 0.85548151 0.5858503 4282476545
-1.1921993 0.86815375 0.58608544 4282476545
-1.1836967 0.86546975 0.58582878 4282476545
-1.174219 0.86307174 0.58551228 4282476545
-1.1932783 0.87582135 0.5857439 4282476545
-1.1944182 0.8841309 0.58493167 4282476545
-1.0776259 0.51869136 0.59268379 4282476545
-1.0696092 0.51944613 0.59230328 4282476545
-1.0541285 0.51766706 0.59173208 4282476545
-1.0470802 0.51670367 0.59439433 4282476545
-1.036098 0.51426005 0.59508175 4282476545
-1.0244931 0.5142687 0.59494978 4282476545
-1.0167136 0.51536107 0.59740007 4282476545
-1.0064597 0.5189563 0.5953058 4282476545
-0.99579906 0.51870847 0.59539539 4282476545
-0.98578531 0.5148437 0.59526461 4282476545
-0.9751218 0.51571953 0.59541833 4282476545
-0.96840912 0.51656604 0.59921479 4282476545
-0.93491268 0.51675469 0.5975334 4282476545
-0.92362815 0.51777595 0.59691763 4282476545
-0.91565496 0.51731634 0.5960083 4282476545
-0.90586948 0.51745743 0.59471875 4282476545
-0.8929829 0.51731175 0.59511751 4282476545
-0.88558167 0.51512229 0.59440273 4282476545
-0.87318605 0.5156433 0.5953747 4282476545
-0.86256135 0.51477855 0.59479946 4282476545
-1.1263553 0.52585036 0.59440291 4282476545
-1.1141807 0.52520311 0.59542513 4282476545
-1.1038139 0.52368981 0.59505337 4282476545
-1.0934566 0.52224553 0.59467858 4282476545
-1.0862778 0.52103394 0.59591889 4282476545
-1.0750885 0.52206087 0.59595966 4282476545
-1.0632744 0.52284062 0.59627414 4282476545
-1.0549523 0.5221315 0.59446901 4282476545
-1.047796 0.52109826 0.59566009 4282476545
-0.99620986 0.52256536 0.593243 4282476545
-0.98869067 0.52031678 0.5916121 4282476545
-0.92245018 0.52076149 0.5993914 4282476545
-1.1172507 0.57515931 0.59454775 4282476545
-1.1187319 0.58568406 0.59407914 4282476545
-1.1203499 0.59592426 0.59627837 4282476545
-1.1196296 0.5924238 0.59302026 4282476545
-1.1215702 0.60499185 0.59504002 4282476545
-1.1231804 0.61585909 0.59576988 4282476545
-1.1329913 0.62687773 0.59768838 4282476545
-1.1243699 0.62449133 0.59500617 4282476545
-1.1340508 0.63536894 0.59527719 4282476545
-1.1252909 0.63229346 0.59200323 4282476545
-1.1353974 0.64493728 0.59485108 4282476545
-1.1289217 0.65611768 0.59511495 4282476545
-1.1324118 0.66630667 0.59513086 4282476545
-1.1297052 0.66198474 0.59422135 4282476545
-1.1403078 0.67809933 0.59703338 4282476545
-1.1381313 0.67269409 0.59472644 4282476545
-1.1411668 0.68501735 0.59500653 4282476545
-1.1425605 0.69439495 0.59569776 4282476545
-1.1440487 0.7049706 0.59522676 4282476545
-1.1455369 0.71554607 0.59475577 4282476545
-1.1468127 0.72461092 0.59435201 4282476545
-1.1484238 0.73564821 0.59473175 4282476545
-1.1503059 0.74770087 0.59698302 4282476545
-1.1496068 0.74446708 0.59346777 4282476545
-1.1511966 0.75460863 0.59545559 4282476545
-1.1526215 0.76459038 0.59531593 4282476545
-1.1541244 0.77499372 0.59543478 4282476545
-1.155535 0.78514767 0.59470534 4282476545
-1.1568105 0.79421246 0.59430164 4282476545
-1.1667583 0.80570155 0.59725958 4282476545
-1.1582021 0.80410141 0.59386116 4282476545
-1.1657168 0.81771338 0.59624571 4282476545
-1.1595725 0.81432152 0.59238952 4282476545
-1.1701819 0.82857794 0.5993048 4282476545
-1.1669919 0.82427663 0.5954389 4282476545
-1.1708173 0.83454484 0.59597504 4282476545
-1.1620221 0.83052409 0.59420913 4282476545
-1.1722689 0.84515017 0.59488982 4282476545
-1.1646876 0.84730029 0.59803605 4282476545
-1.1824191 0.85347188 0.59252423 4282476545
-1.1738354 0.85581088 0.59541094 4282476545
-1.1928577 0.86990029 0.59219813 4282476545
-1.1847348 0.86810368 0.59572333 4282476545
-1.175009 0.8645134 0.5942573 4282476545
-1.1939422 0.87614089 0.59501541 4282476545
-1.1853268 0.8719458 0.5963223 4282476545
-1.2033321 0.88363558 0.59821182 4282476545
-1.1949339 0.88348037 0.59406948 4282476545
-1.0547582 0.51797009 0.60052574 4282476545
-1.0476477 0.51616675 0.60406369 4282476545
-1.0351287 0.5154078 0.60585546 4282476545
-1.0252143 0.51461583 0.60502321 4282476545
-1.0144546 0.51531631 0.60613769 4282476545
-1.0033559 0.51811796 0.60371155 4282476545
-0.99602771 0.5172503 0.60196781 4282476545
-0.98672146 0.51724094 0.6041401 4282476545
-0.97608024 0.51790071 0.60509562 4282476545
-0.96575737 0.51711494 0.60550469 4282476545
-0.95531559 0.51397079 0.60583699 4282476545
-0.94393027 0.51533443 0.60487098 4282476545
-0.93520916 0.51564133 0.60438132 4282476545
-0.92245978 0.5182761 0.60489315 4282476545
-0.91552514 0.51742309 0.60522294 4282476545
-0.90536773 0.51788557 0.60449672 4282476545
-0.89276057 0.51708639 0.60473025 4282476545
-0.88440311 0.51440829 0.6042999 4282476545
-0.87477767 0.51471931 0.60504282 4282476545
-0.86337578 0.51517045 0.60617286 4282476545
-1.1440866 0.52332717 0.60763341 4282476545
-1.1360214 0.52522391 0.6040628 4282476545
-1.1269281 0.52527696 0.6042335 4282476545
-1.1126139 0.52506226 0.60597491 4282476545
-1.1022446 0.52196199 0.60561568 4282476545
-1.0939991 0.52111852 0.60524768 4282476545
-1.0869198 0.52134281 0.60488278 4282476545
-1.0743688 0.52250296 0.60504049 4282476545
-1.0637015 0.52168345 0.60517687 4282476545
-1.0554824 0.52103055 0.60479295 4282476545
-1.0485276 0.52145028 0.60587448 4282476545
-0.99632108 0.52000511 0.60043043 4282476545
-0.98979831 0.52084976 0.60707927 4282476545
-0.92264295 0.52085423 0.60208279 4282476545
-0.89765489 0.5206604 0.60735649 4282476545
-1.1269474 0.57983661 0.60842335 4282476545
-1.1179379 0.57549 0.60414308 4282476545
-1.1277978 0.5858798 0.60815424 4282476545
-1.1191999 0.58510828 0.60234183 4282476545
-1.1262665 0.59496921 0.60608947 4282476545
-1.1303457 0.60494661 0.60527211 4282476545
-1.1269702 0.60093278 0.603791 4282476545
-1.131723 0.61593837 0.6022414 4282476545
-1.1237284 0.614721 0.60644221 4282476545
-1.1333071 0.62595642 0.60440892 4282476545
-1.1249977 0.62374216 0.60604036 4282476545
-1.1344924 0.63417292 0.60447872 4282476545
-1.1357679 0.64323765 0.60407501 4282476545
-1.1301897 0.65847999 0.60904539 4282476545
-1.1293564 0.65471482 0.60466093 4282476545
-1.1308191 0.66438967 0.60574746 4282476545
-1.1405543 0.67652768 0.60411704 4282476545
-1.1340737 0.67271841 0.60624206 4282476545
-1.1419374 0.6860466 0.60434657 4282476545
-1.1339982 0.68554354 0.60784006 4282476545
-1.1432147 0.69470972 0.60483199 4282476545
-1.1447029 0.70528525 0.604361 4282476545
-1.1463089 0.71617371 0.60498494 4282476545
-1.1475756 0.72497815 0.60500866 4282476545
-1.1488423 0.73378259 0.60503232 4282476545
-1.150598 0.74558794 0.60592037 4282476545
-1.1497018 0.74008608 0.60433578 4282476545
-1.1519369 0.75524658 0.60518527 4282476545
-1.1532124 0.76431131 0.60478151 4282476545
-1.1547006 0.77488685 0.60431057 4282476545
-1.1644248 0.78476489 0.6073842 4282476545
-1.1560799 0.78540999 0.60231715 4282476545
-1.1660931 0.79604083 0.60810769 4282476545
-1.1573555 0.79447478 0.60191339 4282476545
-1.1770771 0.8082146 0.60994273 4282476545
-1.1672217 0.80507535 0.60556042 4282476545
-1.158384 0.8015427 0.60210693 4282476545
-1.1686425 0.8150999 0.60526723 4282476545
-1.1704929 0.82759541 0.60608947 4282476545
-1.1698174 0.82344919 0.60489535 4282476545
-1.1714746 0.83486104 0.60515314 4282476545
-1.1826613 0.84789687 0.6081754 4282476545
-1.1726869 0.84299254 0.60581231 4282476545
-1.1650493 0.84794378 0.60207325 4282476545
-1.1833464 0.85334891 0.6067003 4282476545
-1.1744077 0.85679394 0.60187823 4282476545
-1.1656525 0.85199004 0.60240132 4282476545
-1.1850734 0.86613232 0.60505283 4282476545
-1.1754239 0.86365157 0.60233885 4282476545
-1.1946063 0.87646031 0.60428691 4282476545
-1.1858774 0.8722108 0.60401201 4282476545
-1.2037767 0.88384962 0.60442209 4282476545
-1.1954694 0.88259435 0.60401374 4282476545
-1.0874653 0.51884091 0.61846077 4282476545
-1.0759985 0.51810807 0.61813098 4282476545
-1.0557079 0.51707113 0.61671221 4282476545
-1.0462365 0.51546043 0.61479384 4282476545
-1.0341557 0.5148474 0.61461693 4282476545
-1.0257348 0.51353484 0.61516023 4282476545
-1.0161161 0.51321155 0.61433494 4282476545
-0.99011034 0.51839811 0.6170463 4282476545
-0.98525864 0.51874268 0.61440021 4282476545
-0.97678477 0.51799405 0.61546433 4282476545
-0.96636736 0.51534671 0.61374116 4282476545
-0.95623779 0.51543295 0.61652029 4282476545
-0.94234496 0.51759136 0.6160937 4282476545
-0.93494791 0.51564097 0.6156503 4282476545
-0.92583412 0.51523793 0.61480874 4282476545
-0.91307336 0.51658857 0.61352974 4282476545
-0.90483129 0.51731515 0.61590558 4282476545
-0.89371079 0.51776892 0.6151765 4282476545
-0.88517392 0.51465786 0.61532491 4282476545
-0.8754319 0.51424551 0.61327404 4282476545
-0.86462831 0.51399612 0.61568379 4282476545
-1.1445757 0.52299064 0.61569607 4282476545
-1.1363975 0.5230335 0.61442894 4282476545
-1.127375 0.52322757 0.61535543 4282476545
-1.1136889 0.52196711 0.61527514 4282476545
-1.102682 0.52077746 0.61472863 4282476545
-1.0946437 0.52142876 0.61425 4282476545
-1.0875617 0.52165174 0.61384672 4282476545
-1.075415 0.52199352 0.61315352 4282476545
-1.064229 0.52193725 0.61254144 4282476545
-1.0562171 0.52138406 0.61505222 4282476545
-1.0489455 0.52165145 0.61171126 4282476545
-0.99274617 0.52094054 0.61566663 4282476545
-0.98367548 0.52191043 0.61926168 4282476545
-1.1269183 0.5779447 0.61206526 4282476545
-1.1187695 0.57589024 0.61575842 4282476545
-1.1282083 0.58505291 0.61609173 4282476545
-1.1195128 0.58045304 0.61707258 4282476545
-1.1301529 0.59828097 0.61675012 4282476545
-1.1294659 0.59432858 0.61496586 4282476545
-1.1306798 0.60322958 0.61398852 4282476545
-1.1234299 0.6075688 0.61738229 4282476545
-1.1319519 0.6132316 0.61151016 4282476545
-1.124486 0.61555278 0.61601514 4282476545
-1.1340779 0.62833953 0.61083728 4282476545
-1.1258603 0.62555897 0.61506367 4282476545
-1.1349283 0.63438272 0.61056817 4282476545
-1.1272383 0.63463235 0.6161769 4282476545
-1.1362041 0.64344746 0.61016446 4282476545
-1.1287194 0.64515704 0.61570823 4282476545
-1.1304977 0.65750682 0.61576515 4282476545
-1.1298289 0.6534003 0.61458236 4282476545
-1.1401508 0.66788256 0.6166997 4282476545
-1.13147 0.66470289 0.61483771 4282476545
-1.1330564 0.67611933 0.61402571 4282476545
-1.1427631 0.6871683 0.61431611 4282476545
-1.1345286 0.68579882 0.61524689 4282476545
-1.1439549 0.69534767 0.61456168 4282476545
-1.1452533 0.70414168 0.61508483 4282476545
-1.1467274 0.71430814 0.61528552 4282476545
-1.1483388 0.72534531 0.6156652 4282476545
-1.1501486 0.73748416 0.61664927 4282476545
-1.1494617 0.73353183 0.61486495 4282476545
-1.1511027 0.74498564 0.61479044 4282476545
-1.1608094 0.75471991 0.61791456 4282476545
-1.1524819 0.75550884 0.61279708 4282476545
-1.1618775 0.76231021 0.61757654 4282476545
-1.1539727 0.76538146 0.61388212 4282476545
-1.1636386 0.77518737 0.61623698 4282476545
-1.1553394 0.77448994 0.61474705 4282476545
-1.1649725 0.78502852 0.61503273 4282476545
-1.1664908 0.79538298 0.61549073 4282476545
-1.1772972 0.80832058 0.61301857 4282476545
-1.1678591 0.80481607 0.61568344 4282476545
-1.1777269 0.81137305 0.61288267 4282476545
-1.1694026 0.81562287 0.61554265 4282476545
-1.1807446 0.82989997 0.61821866 4282476545
-1.1707864 0.82547224 0.61506987 4282476545
-1.1811743 0.83295244 0.6180827 4282476545
-1.1721302 0.83558095 0.61343777 4282476545
-1.1830494 0.84737229 0.61513013 4282476545
-1.1733327 0.84389305 0.61356014 4282476545
-1.1839609 0.85421383 0.61405528 4282476545
-1.1939789 0.86662745 0.61607414 4282476545
-1.1852484 0.86368686 0.61294878 4282476545
-1.1951176 0.87527674 0.6145097 4282476545
-1.2046255 0.8852157 0.61420935 4282476545
-1.196224 0.88238561 0.615785 4282476545
-0.93571943 0.50960666 0.62504524 4282476545
-0.92957437 0.50994456 0.62326181 4282476545
-1.1364893 0.51833469 0.62593365 4282476545
-1.1275874 0.51936698 0.62686443 4282476545
-1.1151881 0.51866913 0.62462306 4282476545
-1.1030165 0.5181486 0.62541592 4282476545
-1.0949576 0.51824808 0.62581217 4282476545
-1.0877917 0.51761568 0.62599671 4282476545
-1.0774428 0.51632279 0.62541896 4282476545
-1.0561055 0.51624542 0.62445527 4282476545
-1.0446324 0.51419222 0.6238426 4282476545
-1.033707 0.51482761 0.62564909 4282476545
-1.026657 0.51531005 0.62517005 4282476545
-1.0159729 0.51548421 0.62589371 4282476545
-1.0045904 0.51477367 0.62944031 4282476545
-0.99223077 0.51581478 0.62784415 4282476545
-0.98342484 0.51747316 0.6250667 4282476545
-0.97521269 0.51692975 0.62455148 4282476545
-0.96775085 0.51448923 0.62419337 4282476545
-0.95548612 0.51590288 0.62549502 4282476545
-0.94277638 0.51657385 0.62475908 4282476545
-0.93628818 0.51364851 0.62486517 4282476545
-0.92514008 0.51066738 0.62606287 4282476545
-0.91392767 0.51264375 0.62573737 4282476545
-0.89394557 0.5167641 0.62520462 4282476545
-0.8853392 0.5157153 0.62565124 4282476545
-0.8755638 0.51392478 0.62462491 4282476545
-0.86563778 0.51326698 0.62396026 4282476545
-1.1451045 0.52218312 0.62537146 4282476545
-1.1369189 0.52138716 0.62579775 4282476545
-1.1134392 0.52104974 0.62363136 4282476545
-1.0567417 0.52163661 0.62238032 4282476545
-0.9951663 0.52104282 0.62339938 4282476545
-0.98387593 0.52200693 0.62206107 4282476545
-0.94329375 0.52006578 0.62499356 4282476545
-1.1195805 0.57698137 0.62557268 4282476545
-1.1246666 0.58458298 0.62472838 4282476545
-1.1198384 0.58060968 0.62161767 4282476545
-1.1302 0.59548664 0.62348157 4282476545
-1.124766 0.59468359 0.62469834 4282476545
-1.1235206 0.60515952 0.62393838 4282476545
-1.1330475 0.61235023 0.62984586 4282476545
-1.1248838 0.61489469 0.62340134 4282476545
-1.1265568 0.62533337 0.6259988 4282476545
-1.1278893 0.63494557 0.62526727 4282476545
-1.1300051 0.64998084 0.62459755 4282476545
-1.1292217 0.64455765 0.62453562 4282476545
-1.1322751 0.65547061 0.62472403 4282476545
-1.1404232 0.66600162 0.62484264 4282476545
-1.135717 0.66202915 0.62356013 4282476545
-1.1415749 0.6738497 0.62520099 4282476545
-1.1340197 0.67994702 0.62022823 4282476545
-1.143402 0.68578547 0.62688017 4282476545
-1.1347859 0.68424052 0.62246478 4282476545
-1.1446229 0.69513124 0.62505019 4282476545
-1.1460164 0.70450902 0.62574136 4282476545
-1.1475047 0.71508449 0.62527037 4282476545
-1.1489929 0.72566009 0.62479937 4282476545
-1.1515081 0.73594499 0.62517267 4282476545
-1.1497343 0.73165083 0.62300789 4282476545
-1.1601794 0.74734038 0.62437141 4282476545
-1.1532109 0.74499029 0.62431473 4282476545
-1.1613306 0.75529724 0.62448841 4282476545
-1.1528306 0.75004268 0.62981224 4282476545
-1.1628553 0.76490355 0.62665331 4282476545
-1.1549459 0.7679624 0.62291539 4282476545
-1.1643534 0.77482373 0.62774348 4282476545
-1.1557964 0.77400559 0.62264621 4282476545
-1.165661 0.78497392 0.62548077 4282476545
-1.1566467 0.78004885 0.6223771 4282476545
-1.176785 0.79811394 0.62733579 4282476545
-1.167021 0.79450589 0.62533492 4282476545
-1.1783986 0.80885053 0.62839788 4282476545
-1.1686071 0.8059848 0.62438589 4282476545
-1.177714 0.81579828 0.62593395 4282476545
