# .PCD v0.7 - Point Cloud Data file format
VERSION 0.7
FIELDS x y z rgba
SIZE 4 4 4 4
TYPE F F F U
COUNT 1 1 1 1
WIDTH 1084
HEIGHT 1
VIEWPOINT 0 0 0 1 0 0 0
POINTS 1084
DATA ascii
-1.1300095 0.84898674 0.28312197 4280821569
-1.1261394 0.84424001 0.28465742 4280821055
-1.1322297 0.85684425 0.28398272 4280624960
-1.128195 0.85335505 0.28620327 4280428608
-1.1414394 0.86764246 0.2867415 4281347142
-1.1358802 0.86426771 0.2848326 4281083713
-1.1441804 0.87474197 0.28533071 4281412424
-1.1391788 0.87034136 0.28134581 4281608773
-1.5929582 0.3033241 0.29182935 4282994519
-1.5864937 0.30828005 0.2960214 4283456095
-1.5763431 0.30988842 0.29904658 4283519580
-1.590539 0.31748813 0.29539382 4282804067
-1.5870386 0.31468228 0.29541469 4283657065
-1.5921085 0.32425278 0.29281205 4283591529
-1.5849527 0.32400459 0.29683784 4283657835
-1.5854275 0.3312574 0.29713169 4283723119
-0.64650857 0.40624276 0.29411939 4279903029
-0.64385468 0.41488013 0.29548687 4279703087
-0.64256161 0.42431054 0.29505616 4279572271
-0.63966238 0.42852023 0.29932022 4279835697
-0.64054936 0.43538222 0.29856822 4279506483
-0.6383689 0.43664837 0.29456884 4279637556
-0.64129746 0.44660059 0.29525289 4279901496
-0.63882077 0.44422439 0.29387674 4279900982
-0.64414132 0.45487854 0.2952399 4279902523
-0.65103298 0.46752033 0.29528019 4280558143
-0.64828223 0.46324813 0.29456866 4280557888
-0.66211683 0.47890446 0.29050419 4280690505
-0.65538484 0.47498894 0.29492414 4280362821
-0.69126827 0.48973238 0.29683793 4280493897
-0.68558252 0.48867512 0.29497778 4280886856
-0.67445791 0.48708969 0.29506001 4280559687
-0.66473281 0.48300695 0.29501671 4280166472
-0.65895307 0.48106414 0.29586989 4280952904
-0.72436261 0.49872288 0.29190409 4280363082
-0.71479511 0.49850836 0.29528874 4280166472
-0.70519626 0.49672839 0.29482856 4280755785
-0.69568044 0.49343783 0.29513922 4280624457
-0.68898964 0.49151024 0.2906231 4280493384
-0.86616564 0.50963426 0.29304081 4281215051
-0.82361639 0.50953847 0.2921195 4280887114
-0.81571323 0.50855589 0.29222852 4280625226
-0.80529159 0.50807512 0.29472619 4280690762
-0.7961129 0.5074017 0.29530576 4280429131
-0.78603005 0.50663507 0.29455149 4280428874
-0.7749244 0.50646096 0.2951732 4280625482
-0.76554435 0.505032 0.2950542 4280493896
-0.75450146 0.50418818 0.29480577 4280428619
-0.74427062 0.50268096 0.29513189 4280428362
-0.73433566 0.50132668 0.29497585 4280428362
-0.7254712 0.5007329 0.29569301 4279904329
-0.71772701 0.50118959 0.29423881 4280232266
-1.1133488 0.51870286 0.29650509 4281413435
-1.1053877 0.5168947 0.29556692 4280952636
-1.0951409 0.51675475 0.29581681 4280624191
-1.0852973 0.51641929 0.29486403 4280689215
-1.0750959 0.51545078 0.29481158 4280820801
-1.0641778 0.51528394 0.29406554 4280427331
-1.0552478 0.51448935 0.29563081 4280491842
-1.0442197 0.51354015 0.29449171 4280688706
-1.0390927 0.51264602 0.29358506 4280689219
-1.0235684 0.51686651 0.29644045 4280885827
-1.0140083 0.51699734 0.29491141 4281147973
-1.0047193 0.51744914 0.2951982 4281279301
-0.99445987 0.51787716 0.29482278 4281017668
-0.98395842 0.51739627 0.29488254 4280559172
-0.97572666 0.51505905 0.29547822 4280690248
-0.96586663 0.51541495 0.29444867 4280755272
-0.95543998 0.51510388 0.29483575 4280951878
-0.94507992 0.51519799 0.2953274 4281018441
-0.93535519 0.51552415 0.29559073 4280822346
-0.92605716 0.51647305 0.29473934 4280559946
-0.91472983 0.51589429 0.2949256 4280691019
-0.90536636 0.5136562 0.29446334 4280493384
-0.89602399 0.51304615 0.29587683 4280625226
-0.88554859 0.51294678 0.29465711 4280428362
-0.87434471 0.51251554 0.2954776 4280886601
-0.8650831 0.51192677 0.29470173 4281017673
-0.85489684 0.5121783 0.29525393 4281084234
-0.84456426 0.51266372 0.29512909 4281018699
-0.83463001 0.51288742 0.29531148 4281149514
-0.82601064 0.51199406 0.29601705 4281018698
-0.81396085 0.51138073 0.29689533 4280953419
-0.80845255 0.51045328 0.29706609 4280952650
-1.1098082 0.52101719 0.29923233 4281940033
-0.91261125 0.52029061 0.29094559 4280953677
-1.0810765 0.56065786 0.29909408 4283723380
-1.0731018 0.56850493 0.29497358 4281486934
-1.0751681 0.574808 0.29543668 4278784290
-1.073657 0.5846315 0.29446727 4279309356
-1.0696108 0.58953744 0.29481936 4279506993
-1.0730697 0.59526134 0.29499429 4279704119
-1.0752121 0.60474372 0.29498115 4279900471
-1.0768894 0.61457443 0.29481897 4279703863
-1.0771787 0.62395996 0.29538828 4280162872
-1.0761739 0.63538468 0.29477939 4280097591
-1.08079 0.64655209 0.29244775 4280294714
-1.0775944 0.64428371 0.29556206 4279966777
-1.0811967 0.65452117 0.29591596 4280491324
-1.0785851 0.65363491 0.2937021 4280098106
-1.0813786 0.6659897 0.29598692 4280425530
-1.0783298 0.66496718 0.29479167 4280359995
-1.0832065 0.6749149 0.29487994 4280294460
-1.0795146 0.67167288 0.29167157 4280229438
-1.0846814 0.68500322 0.29505342 4280753725
-1.0918232 0.69641018 0.29379433 4280819260
-1.088124 0.69386435 0.29643521 4280950332
-1.092638 0.70503366 0.29570735 4280557373
-1.0893431 0.70603091 0.29114419 4280754753
-1.0945802 0.71399611 0.29500696 4280557117
-1.0935465 0.72479588 0.29464927 4280688446
-1.0961307 0.73467451 0.2951811 4280753982
-1.1019082 0.74446929 0.29318851 4281015613
-1.0975609 0.74403226 0.29626673 4280753982
-1.1016048 0.75342602 0.29374129 4280950590
-1.0987837 0.7547971 0.29707441 4280819775
-1.102965 0.7649489 0.29596117 4280819261
-1.0985006 0.76146525 0.29176158 4280753982
-1.1112547 0.77834159 0.29868716 4281278013
-1.1067007 0.77466697 0.29449162 4281015870
-1.1122439 0.78517067 0.2957392 4280950843
-1.1089895 0.78330678 0.29162425 4280950333
-1.1130023 0.79559362 0.29544753 4280164925
-1.1094822 0.79236448 0.29355592 4280361789
-1.1206374 0.80834335 0.29872096 4280623167
-1.1166347 0.80488092 0.2943809 4280819774
-1.1210467 0.81568867 0.29395929 4280557628
-1.1179824 0.81411511 0.29504064 4280623422
-1.1237571 0.82591629 0.29282254 4281082174
-1.1176968 0.82392675 0.29752442 4280689215
-1.1245111 0.83562738 0.29485899 4280623677
-1.1183244 0.83013767 0.29881239 4281147711
-1.1302171 0.84800655 0.29393116 4280362559
-1.1266167 0.84493953 0.29513302 4280296766
-1.1307533 0.85659206 0.29627469 4281541954
-1.1277388 0.85504711 0.29511175 4281410623
-1.1408817 0.86819535 0.29527044 4281280068
-1.1352526 0.8647958 0.29462543 4281148995
-1.1519847 0.87808961 0.29503641 4281674825
-1.1455207 0.87438697 0.29503426 4281608519
-1.1382688 0.87071675 0.29599008 4281280324
-1.5817791 0.30984133 0.30730215 4284570984
-1.579061 0.30986488 0.30317435 4283979874
-1.5815918 0.31597084 0.30252895 4284181614
-1.5764821 0.31501412 0.30430162 4284705134
-1.5841228 0.32207683 0.30188355 4283329384
-1.5771279 0.32520097 0.30661526 4284313455
-1.5812587 0.33380288 0.30656117 4283984749
-1.5777396 0.3349449 0.30392247 4284050798
-0.64492816 0.40855721 0.30504179 4278918960
-0.64315248 0.41476014 0.30522704 4279572527
-0.6399222 0.41024613 0.30136707 4281749082
-0.64095873 0.42470899 0.30742469 4279375405
-0.63867581 0.42653435 0.303976 4279179311
-0.64063489 0.43509457 0.30575219 4279703348
-0.63917375 0.43477789 0.30434966 4279375410
-0.641132 0.44532862 0.30448252 4280097593
-0.63938856 0.44431284 0.30661258 4280097593
-0.64444011 0.45502076 0.30505812 4279967546
-0.65157473 0.46652281 0.30400863 4280557886
-0.64871109 0.46370894 0.30555996 4280426557
-0.66135085 0.47858369 0.3057127 4280952904
-0.65609014 0.47466052 0.30484727 4280886595
-0.69147873 0.48980519 0.30150256 4280297802
-0.68366903 0.48841268 0.30384129 4280428618
-0.67479032 0.48646042 0.3052634 4280690505
-0.66522557 0.48319218 0.30469945 4280297544
-0.65938312 0.48126411 0.30224007 4281215305
-0.72210538 0.49894726 0.30657667 4280362055
-0.71572095 0.49791393 0.30433378 4279641413
-0.7044552 0.4965196 0.30520907 4280493896
-0.69583625 0.49300551 0.30498284 4279576647
-0.68605494 0.49164394 0.30652994 4280232010
-0.80322921 0.50826907 0.3044548 4280755785
-0.793863 0.5081799 0.30404356 4280821834
-0.78529656 0.50780499 0.3040733 4280625739
-0.7740643 0.50669497 0.3051385 4280493896
-0.76466072 0.5047642 0.30471772 4279576648
-0.75489551 0.50441015 0.30397972 4280362312
-0.74527919 0.50323951 0.30526862 4280755529
-0.73541063 0.50212204 0.30481842 4280624200
-0.72623545 0.50164545 0.30481678 4280165704
-1.1051311 0.51700544 0.30487487 4281083193
-1.0945778 0.51701701 0.30622607 4280557885
-1.085372 0.51577866 0.30424538 4280426815
-1.0746274 0.5157578 0.30365515 4280492352
-1.0639628 0.51581246 0.30524877 4280688959
-1.0549802 0.51381898 0.30567181 4280557631
-1.0456157 0.51377505 0.30355385 4280819520
-1.0258847 0.51829201 0.30488962 4280950592
-1.0147185 0.51820755 0.3050116 4280885571
-1.0055556 0.51745826 0.30582643 4280689220
-0.99528462 0.51789337 0.30474889 4280427076
-0.98517632 0.5160898 0.30429739 4280295748
-0.97620738 0.51523829 0.30478472 4280492613
-0.96482825 0.51630372 0.30439425 4280689990
-0.95473856 0.51682967 0.30544659 4280428100
-0.94610816 0.51588428 0.3053312 4280756294
-0.93639648 0.51682365 0.30520841 4280821831
-0.92424214 0.51647955 0.30350506 4280822089
-0.91507322 0.51580727 0.30440575 4280559175
-0.90502429 0.51559216 0.3059274 4280624712
-0.89468074 0.51468867 0.30508599 4280952651
-0.88506192 0.51359558 0.30502787 4280821065
-0.8747282 0.51342624 0.30451569 4280689993
-0.86461103 0.51339614 0.30514184 4280821063
-0.85516196 0.51312894 0.30512673 4280821062
-0.8451128 0.51291621 0.30501744 4280690503
-0.834454 0.5124954 0.30521581 4280427591
-0.8246063 0.51164007 0.30498263 4280690506
-0.81397849 0.51191527 0.30513433 4280756299
-0.80688792 0.5107848 0.30423409 4280952907
-0.7921496 0.5112291 0.30704036 4280428104
-0.7801882 0.511976 0.30991367 4280429388
-0.77753466 0.51070338 0.30878833 4280690505
-1.1139112 0.52098167 0.30546319 4282927182
-1.1075201 0.52101672 0.30554953 4280755246
-1.0686785 0.52027804 0.3099238 4280623682
-0.92479265 0.52018511 0.30944473 4280691016
-0.919083 0.5202409 0.30859101 4280822345
-1.0833797 0.55678189 0.30541641 4283395440
-1.081282 0.56286138 0.30593812 4283000426
-1.0770533 0.56782591 0.30514029 4280629827
-1.0800635 0.5717597 0.30898371 4278389528
-1.0758741 0.5744077 0.30426362 4278652446
-1.0721824 0.58435905 0.30494553 4279375404
-1.0694062 0.5883379 0.30516541 4279703087
-1.072675 0.59443009 0.30532017 4279375667
-1.0696241 0.59160751 0.30798841 4279768628
-1.074067 0.60499245 0.30490249 4279703606
-1.0767987 0.61565745 0.30492634 4279703864
-1.080099 0.62240911 0.30126661 4279768627
-1.075986 0.625009 0.30469653 4279638325
-1.0733062 0.63525277 0.30505031 4280228407
-1.0810595 0.6479162 0.30163303 4280360250
-1.0767045 0.6452288 0.30539602 4280097592
-1.0817878 0.65538812 0.30628613 4280425531
-1.0785999 0.65484291 0.30261666 4280359738
-1.0850855 0.66489464 0.30506146 4280752955
-1.084534 0.67672163 0.30534127 4280752442
-1.0910661 0.68644869 0.30809426 4280557374
-1.0874823 0.68488532 0.30381981 4280622653
-1.0918779 0.69669122 0.30181918 4280884796
-1.087141 0.69415742 0.30596265 4280687932
-1.09305 0.70681834 0.30399501 4280360250
-1.0880325 0.70343697 0.30779165 4280753980
-1.0955158 0.71506476 0.3054913 4280229693
-1.0957173 0.72485298 0.30448636 4280622909
-1.1003556 0.73490602 0.30424508 4281147711
-1.0972648 0.73418725 0.3052434 4280753981
-1.1014085 0.74638838 0.30720326 4280361021
-1.0976816 0.74405545 0.30327618 4280688188
-1.1030271 0.75500476 0.30490386 4280557371
-1.1056504 0.76502711 0.30517951 4280950076
-1.110734 0.77515233 0.30336449 4280885566
-1.1077222 0.7753191 0.30563673 4280688701
-1.1123533 0.78547043 0.30403432 4280295740
-1.108832 0.7827211 0.30696961 4280230460
-1.1147193 0.79500836 0.30506563 4280295482
-1.1215416 0.80726385 0.30087924 4280753982
-1.1170845 0.80508524 0.30551204 4280622909
-1.1200826 0.81820631 0.30043444 4280623422
-1.1172523 0.81577158 0.30565634 4280754239
-1.1202946 0.82480478 0.30569834 4281147711
-1.117918 0.82521623 0.3048448 4281016382
-1.1223961 0.83532619 0.30508012 4281082173
-1.1194577 0.83149666 0.30474529 4281147196
-1.1264402 0.84493136 0.30487105 4280755004
-1.1315138 0.85572243 0.30705696 4280820802
-1.128415 0.8538689 0.30451018 4280886080
-1.1357051 0.86477548 0.30493852 4280886338
-1.1290977 0.86071062 0.30053094 4281411142
-1.1524016 0.87898338 0.30478927 4281609544
-1.1438282 0.87576902 0.3051776 4281542981
-1.138464 0.87178946 0.30527645 4281345861
-1.1488321 0.88090503 0.3077608 4281675080
-1.5756489 0.31483456 0.31392777 4284242273
-1.5680472 0.31520957 0.31780019 4281412406
-1.5809941 0.32770801 0.31062588 4284510063
-1.5742754 0.32394964 0.31578842 4284771437
-1.5762899 0.33497068 0.31579 4284312429
-0.64700079 0.40771967 0.3139227 4279247666
-0.64396352 0.41523451 0.31452197 4279637804
-0.641222 0.42470202 0.31464404 4279375146
-0.63918251 0.42844322 0.31624982 4279374890
-0.64040792 0.4344472 0.31517148 4279507249
-0.63883138 0.43418851 0.31554323 4279506478
-0.64126098 0.44660598 0.31664753 4280752952
-0.63871026 0.44337854 0.31437233 4280424759
-0.64454937 0.45516515 0.31484792 4280361018
-0.63961941 0.45192099 0.311445 4280884538
-0.65137511 0.46768838 0.31583983 4279968061
-0.64818686 0.46382654 0.31456295 4279967803
-0.66232789 0.47924051 0.31446117 4280232518
-0.65523338 0.47487995 0.31488773 4280624963
-0.68200088 0.48894849 0.31582427 4280296518
-0.67433566 0.48639885 0.31502965 4280100164
-0.66666722 0.48260427 0.31491396 4280297285
-0.65845174 0.48021978 0.31919539 4280101185
-0.72392893 0.49935445 0.31522828 4280166217
-0.71337092 0.49825275 0.31526729 4280034887
-0.70525777 0.49684352 0.31463423 4280427590
-0.69470334 0.49450222 0.3158116 4279969350
-0.68618584 0.491842 0.31463313 4280296774
-0.67966712 0.49119473 0.31390852 4280755014
-0.79317063 0.5092411 0.3129738 4280297801
-0.78540337 0.50966442 0.31558296 4280231752
-0.77453798 0.50894713 0.31456777 4280362824
-0.76582229 0.50682938 0.31519321 4280820807
-0.75440371 0.50581551 0.31502968 4280165447
-0.74521261 0.50331467 0.31498772 4280231240
-0.73421568 0.50219578 0.31496403 4280820552
-0.72661495 0.50112331 0.31440961 4280427591
-0.71592098 0.50010949 0.31625268 4279772743
-1.1205487 0.51629919 0.31893113 4279966507
-1.1121465 0.51768529 0.3149862 4280754996
-1.1049166 0.51682919 0.31445673 4281148218
-1.0943974 0.51797301 0.31530952 4281213246
-1.0864236 0.51672268 0.31198841 4279968320
-1.0712414 0.51800656 0.31546366 4279706431
-1.0639977 0.51716113 0.31401685 4280099133
-1.0566356 0.51504236 0.31510088 4280294716
-1.0455645 0.51611459 0.31517142 4280229950
-1.0309527 0.51895803 0.31543356 4280099135
-1.0252388 0.51920688 0.31516498 4280295231
-1.0143489 0.51844567 0.3144435 4280950849
-1.0052564 0.51662266 0.31511104 4281213251
-0.99602222 0.5174284 0.3150585 4280819779
-0.9851014 0.5183239 0.31488836 4280623171
-0.97525579 0.51811045 0.31492949 4280688964
-0.96653813 0.51746964 0.31481671 4280623682
-0.95413393 0.51853555 0.31591746 4280689988
-0.94518059 0.5177545 0.31448662 4280690245
-0.93553513 0.51804227 0.31552771 4280624966
-0.92419618 0.51762724 0.31628269 4280231238
-0.91498756 0.51780397 0.31520402 4280297031
-0.90445173 0.51706123 0.31513381 4280558405
-0.89496928 0.51530689 0.31484628 4280755014
-0.88452131 0.5154652 0.31510663 4280296262
-0.87601537 0.51417428 0.31466725 4280624969
-0.86341918 0.51475376 0.31522042 4280887112
-0.85599101 0.51276374 0.31446972 4280820548
-0.84556741 0.51299441 0.31496269 4280820549
-0.83583075 0.51242542 0.3146604 4280886345
-0.8247295 0.51230294 0.31536296 4280820808
-0.81552982 0.51225328 0.31459793 4280755786
-0.80569112 0.51156092 0.31496829 4280362055
-0.79541546 0.51144677 0.31589368 4280231496
-0.78263295 0.51099998 0.31505913 4280100679
-0.77445465 0.51039153 0.31478775 4280428104
-1.1116079 0.52098125 0.31175736 4280492330
-1.0813985 0.52120268 0.31870598 4281016639
-1.0735394 0.52021712 0.31536418 4279968320
-1.0683242 0.5203923 0.31908152 4280492865
-1.0308383 0.5212605 0.31846231 4280033598
-1.0282464 0.52128291 0.31452626 4280295744
-0.93088335 0.52013236 0.31869432 4280821575
-0.92437005 0.52019191 0.31271163 4280363078
-1.0824977 0.55686843 0.31379631 4283656812
-1.0794826 0.55837148 0.31791243 4283787630
-1.0810727 0.56543064 0.31351683 4281023812
-1.0781914 0.56562036 0.31553829 4282142806
-1.0763943 0.57575172 0.3156206 4278717983
-1.0736663 0.58519638 0.3148869 4279505452
-1.0748295 0.5954892 0.31507549 4279637043
-1.0770953 0.60486758 0.31465763 4279768630
-1.0762134 0.61488289 0.31505159 4279637557
-1.0745759 0.62497723 0.31535324 4279703863
-1.0756663 0.63447452 0.31472981 4279703862
-1.0823581 0.64685911 0.31414852 4280098107
-1.0779244 0.6433813 0.31532392 4279900985
-1.0839204 0.65545219 0.31481719 4279835705
-1.0856024 0.66498655 0.31506413 4280163385
-1.0915424 0.67836916 0.31473309 4280228665
-1.0876063 0.67459106 0.31499892 4280490553
-1.0920795 0.68467999 0.31418154 4280228667
-1.0893167 0.68583077 0.31828561 4280228923
-1.0917711 0.69038796 0.31605187 4280359740
-1.0876395 0.69512165 0.31440192 4280491067
-1.0904236 0.70670652 0.31477052 4280360507
-1.0873142 0.7042886 0.31557769 4280426043
-1.0917996 0.71583104 0.31609905 4280360506
-1.0889268 0.71331137 0.31255716 4280688187
-1.0942814 0.72497922 0.31508765 4280687674
-1.1005706 0.73836261 0.31442231 4280360251
-1.0974401 0.73477077 0.31504521 4280360251
-1.1020792 0.74526089 0.31634367 4280622652
-1.0989978 0.74508619 0.31233323 4280688189
-1.1037592 0.75496095 0.3145223 4280426297
-1.1030416 0.76526219 0.31527954 4280884797
-1.0999308 0.76863372 0.31604913 4281474880
-1.1122826 0.77913475 0.3172594 4281278012
-1.1044126 0.77499199 0.31519368 4281146429
-1.1135552 0.78541493 0.3150982 4280819260
-1.10627 0.78156894 0.31290159 4280753721
-1.1139588 0.79470825 0.31507587 4280622394
-1.1142586 0.80523664 0.31514129 4280623164
-1.1209645 0.81819725 0.31468037 4280688445
-1.117133 0.81462395 0.31481609 4280557630
-1.1225713 0.82529688 0.31548533 4280820028
-1.1190863 0.82264656 0.31327382 4280951101
-1.1245207 0.83520985 0.31451118 4280885307
-1.1268245 0.8452279 0.31541827 4280819770
-1.1332179 0.8554126 0.3148331 4280886591
-1.128642 0.85198569 0.31600994 4280559163
-1.1403875 0.86803102 0.31224197 4281410624
-1.1368449 0.86453831 0.31482071 4281214015
-1.160014 0.87977129 0.31572446 4281348429
-1.1548009 0.87909025 0.31485772 4281478730
-1.1447622 0.87531382 0.31465507 4281608773
-1.1384436 0.87160295 0.31646279 4281673282
-1.1557486 0.88084513 0.31826437 4280627788
-1.5716349 0.31517848 0.32324868 4282400842
-1.5660709 0.31602362 0.32399246 4281150007
-1.5747204 0.32425141 0.32126871 4284902766
-1.5662638 0.32587585 0.32684425 4284574571
-1.5812932 0.335114 0.32325155 4284050799
-1.5748388 0.33364335 0.32630044 4284247148
-1.5683093 0.33189034 0.32553166 4284509292
-1.5740529 0.34088901 0.3276262 4284117363
-0.64641845 0.40812841 0.32577857 4280169278
-0.64488876 0.41446126 0.32469261 4279244329
-0.64159435 0.42331067 0.32512349 4279571497
-0.63948578 0.4278037 0.32388121 4279374888
-0.64054668 0.43517685 0.32457957 4279245103
-0.6390115 0.43557853 0.3250111 4278982957
-0.64276052 0.44562238 0.32485485 4280032566
-0.63950658 0.44225931 0.32656446 4280163894
-0.64586556 0.45548862 0.32467696 4280032824
-0.65206385 0.46730798 0.32554933 4279771450
-0.64855349 0.46332383 0.325248 4279901497
-0.66290927 0.47770235 0.32621622 4280757318
-0.65616113 0.47347397 0.32470581 4280822082
-0.69074154 0.48904335 0.32049993 4280493126
-0.68407488 0.4885146 0.32488412 4280624197
-0.67568547 0.48478976 0.32468987 4280493380
-0.66624492 0.48150149 0.32510194 4280363075
-0.65947193 0.48021093 0.32074469 4280559938
-0.72013819 0.49825546 0.32105529 4280689221
-0.71379608 0.49796593 0.32419097 4280362054
-0.70441741 0.49642378 0.32527798 4280558405
-0.69521511 0.49300608 0.32455799 4280296774
-0.68729824 0.49116319 0.3266454 4280295747
-0.772277 0.50846708 0.32242042 4280231752
-0.76528746 0.50783354 0.32487795 4280428102
-0.75428545 0.50673258 0.32532954 4280493126
-0.74579459 0.50485861 0.32456976 4279838022
-0.73423016 0.50573444 0.32527056 4280362054
-0.72482324 0.50319582 0.32506892 4280886086
-0.71700823 0.50091273 0.32728115 4280820549
-1.133152 0.51621026 0.32827917 4281219138
-1.1243696 0.51672822 0.32537302 4280426544
-1.1147783 0.51510882 0.32437336 4280885819
-1.1049876 0.51502275 0.32436082 4280885566
-1.0975416 0.51568902 0.32564831 4280557116
-1.0749263 0.51804304 0.32659653 4280229690
-1.0631082 0.51787168 0.32498947 4280556858
-1.0538114 0.51870471 0.32574582 4280884541
-1.046518 0.51858038 0.32486334 4281343038
-1.0338526 0.5190466 0.32464254 4280819518
-1.0239283 0.51893586 0.32571441 4280033085
-1.0157392 0.51810163 0.32414484 4280033086
-1.0054163 0.51727599 0.32542142 4280491839
-0.99371147 0.51772064 0.32552654 4280885057
-0.98406881 0.51779771 0.32506448 4280557377
-0.9754563 0.51726276 0.3238382 4280295490
-0.96513534 0.51713496 0.32551479 4280755269
-0.95654291 0.51744109 0.32399374 4280820804
-0.94408607 0.51789004 0.32433417 4280755268
-0.93465745 0.51804268 0.32515055 4280492867
-0.92527169 0.51724452 0.32450724 4280296004
-0.91352439 0.51773405 0.32483426 4280493127
-0.90486318 0.51721066 0.32468116 4280558406
-0.89479977 0.51713216 0.32516316 4280623942
-0.88398659 0.51676053 0.32560125 4280558148
-0.87498128 0.51602608 0.32515556 4280755270
-0.8642925 0.51549172 0.32453686 4281017157
-0.85448349 0.51423872 0.32494769 4281278788
-0.84509259 0.51380259 0.32502198 4281016902
-0.83406508 0.51342034 0.32580468 4280230726
-0.82541692 0.51154041 0.32480669 4280362055
-0.81493717 0.51095432 0.32530782 4280623943
-0.80574739 0.51194733 0.32473165 4280821065
-0.79518664 0.51228034 0.32503986 4280821064
-0.78511435 0.51184499 0.32486194 4280361797
-0.77656078 0.51070869 0.32539919 4280493383
-0.76910633 0.51077259 0.32727811 4280689992
-1.0829653 0.52053058 0.3235231 4280491838
-1.076055 0.52023637 0.32306528 4280295742
-1.0654265 0.52050287 0.32113621 4280820030
-1.0346117 0.52128506 0.32659534 4281146429
-0.94509703 0.52003407 0.32592198 4280886597
-0.93514681 0.52009535 0.32516903 4280689732
-1.074549 0.56776565 0.32521915 4282338646
-1.0807625 0.57333845 0.32599428 4278389278
-1.0778003 0.57445967 0.32395235 4278521376
-1.076025 0.5848887 0.32535088 4279243309
-1.0747795 0.59573793 0.32477126 4279767601
-1.0805124 0.60640883 0.3214339 4280095797
-1.0773178 0.60472989 0.32565421 4279833651
-1.0761063 0.61552989 0.32519919 4279768627
-1.0760115 0.62478048 0.3246347 4279769139
-1.0812452 0.63797796 0.32874826 4279638583
-1.0771168 0.63396442 0.32495648 4279703605
-1.0824596 0.64577407 0.32538867 4279966264
-1.0786175 0.64263886 0.32136029 4279572790
-1.084704 0.65423387 0.32451561 4279835961
-1.0840639 0.66432267 0.32488668 4279835703
-1.0900207 0.67957515 0.32132548 4279835449
-1.0846528 0.67457962 0.32520306 4280097591
-1.0911846 0.68605304 0.3222512 4280425529
-1.0869149 0.68476665 0.32614681 4280491066
-1.090816 0.6949504 0.32690877 4280818233
-1.0880592 0.69533801 0.32506281 4280687417
-1.0912931 0.70547301 0.32614371 4280360250
-1.0887529 0.70367104 0.32433334 4280491579
-1.092916 0.71532017 0.32548308 4280425529
-1.0889276 0.71173638 0.32153383 4280098362
-1.0964941 0.72454208 0.32481784 4280556345
-1.100862 0.73617494 0.32168022 4280294715
-1.0969546 0.73445672 0.3254101 4280228922
-1.1008828 0.74685478 0.32366547 4280622396
-1.096839 0.74468112 0.32604364 4280425531
-1.1020749 0.75486082 0.32411623 4280622906
-1.0983152 0.75351101 0.32691845 4280491836
-1.1016272 0.76484895 0.32529831 4280426042
-1.0994337 0.7650342 0.32445219 4280425785
-1.1057265 0.77502817 0.32482272 4280687420
-1.0998387 0.77342647 0.3299979 4280819006
-1.1116149 0.78717297 0.3240495 4280491067
-1.1076643 0.78329623 0.32560769 4280752953
-1.1131895 0.79548514 0.32402241 4280622652
-1.1085113 0.79340529 0.32847825 4280294972
-1.115015 0.80539709 0.32504848 4280754236
-1.121505 0.8172099 0.32482475 4281081660
-1.1176319 0.81483996 0.32541969 4281081917
-1.1227627 0.82467681 0.32459271 4280950586
-1.1184345 0.82354611 0.32922781 4281081145
-1.124323 0.83489221 0.32500839 4280361017
-1.1306006 0.84915417 0.3210462 4280754490
-1.1273711 0.84434187 0.32462728 4280688698
-1.13309 0.85617214 0.32455871 4281214529
-1.1282691 0.8522433 0.32525167 4280820543
-1.1412592 0.86781371 0.32506096 4281083969
-1.1368077 0.86393648 0.3252537 4281280578
-1.1522485 0.87870139 0.32399264 4281085769
-1.1441756 0.87416166 0.3250263 4281215555
-1.1395841 0.87105632 0.32640949 4281018433
-1.1543055 0.88129139 0.32553205 4281151049
-1.5694509 0.32735628 0.33057946 4284312425
-1.5557586 0.32588056 0.33295202 4283258457
-1.5642065 0.33473498 0.33484226 4284246633
-1.5539765 0.33348772 0.33788365 4284312426
-1.5430768 0.33251435 0.33971164 4283916388
-1.5641297 0.34437826 0.33352813 4283986290
-1.5581923 0.34414884 0.33644974 4284116077
-0.64621353 0.40760726 0.3337653 4281355349
-0.64389467 0.41528046 0.33517942 4278917931
-0.64176565 0.42472985 0.33564419 4279440171
-0.63979667 0.42903581 0.33434311 4279440430
-0.640504 0.43159354 0.33745006 4279833390
-0.63867044 0.43530855 0.33420461 4279375407
-0.64317739 0.44714278 0.33549699 4280228918
-0.63855326 0.44327134 0.3345497 4279900979
-0.65133601 0.45770967 0.33274505 4280556346
-0.64762604 0.45430368 0.33506122 4279769654
-0.65231156 0.46569538 0.33455211 4279901755
-0.64928299 0.46329319 0.33826047 4280032057
-0.66218096 0.47652569 0.33500722 4280560198
-0.65777171 0.47222826 0.33510163 4280297026
-0.68266416 0.48847121 0.33352232 4281081924
-0.67410928 0.48544925 0.33459336 4280951107
-0.66688859 0.48136774 0.33551317 4280886853
-0.71169919 0.49860358 0.33150283 4279838022
-0.70447153 0.49845704 0.33463457 4280296262
-0.69511789 0.49600136 0.3351616 4280820294
-0.68650329 0.49316293 0.33571073 4280885572
-0.67867142 0.4911525 0.33883193 4280426820
-0.79165417 0.50986344 0.33466712 4280558405
-0.78944415 0.50988263 0.33131093 4281017415
-0.77175355 0.50890511 0.33264938 4280821318
-0.76393551 0.50883704 0.33529735 4280623427
-0.75583047 0.50742131 0.33427107 4280427076
-0.74432504 0.50734049 0.33543751 4280688708
-0.73590457 0.50563449 0.33440936 4280950594
-0.72460103 0.50386554 0.33542737 4280624195
-0.71580523 0.50063872 0.33484137 4280361797
-0.70876229 0.50118774 0.33738998 4280361541
-1.1287544 0.51622808 0.33139277 4279638312
-1.1146425 0.51913267 0.33529955 4280032563
-1.1043159 0.51699424 0.33412215 4280360764
-1.096212 0.51500636 0.3368479 4280687161
-1.0846746 0.51644015 0.33514845 4280687159
-1.0740429 0.51656377 0.33472458 4280818488
-1.0657401 0.51692945 0.33400524 4280753467
-1.0538244 0.51887316 0.33458117 4280753468
-1.0328711 0.5192892 0.3327578 4281015613
-1.0254996 0.51882052 0.33466369 4280884541
-1.0154457 0.51819831 0.33501491 4280687934
-1.0060582 0.51744312 0.33486944 4280229951
-0.99505478 0.5184294 0.33514026 4280099136
-0.98585391 0.51870906 0.33486378 4280688704
-0.97505188 0.51884997 0.33422008 4280688193
-0.96461976 0.51849967 0.33526108 4280754500
-0.95600307 0.51841766 0.33486512 4281017415
-0.94873708 0.51999205 0.33536839 4280885829
-0.93404007 0.51816779 0.33468446 4280296773
-0.92368209 0.51876497 0.33813697 4280165443
-0.91482395 0.51892889 0.33493108 4280033859
-0.90460891 0.5191924 0.33493316 4280493126
-0.89413249 0.51871079 0.33494359 4280558404
-0.88524479 0.51765984 0.33491769 4280492869
-0.87442648 0.51758522 0.33546564 4280296517
-0.86504364 0.51692659 0.33506534 4280557892
-0.85477394 0.51601994 0.3347953 4281147461
-0.84532613 0.51541555 0.33589807 4280754243
-0.83510554 0.51396203 0.33533639 4280230211
-0.82613111 0.51227987 0.33528215 4280231239
-0.8162834 0.51282626 0.33552393 4280230982
-0.8034175 0.51442564 0.33562261 4280427847
-0.79539078 0.51285392 0.33477551 4280558919
-0.78419435 0.51056165 0.33488622 4280558662
-0.77525026 0.51054257 0.33510855 4280821320
-0.76740903 0.51121587 0.33807433 4280951620
-1.113835 0.52143449 0.33630309 4279769130
-1.1025462 0.52161455 0.33865327 4280164410
-1.0819809 0.52016282 0.33012557 4280425016
-1.0425014 0.52115941 0.33617458 4280949563
-1.0345168 0.52149057 0.33485615 4281080636
-1.0119535 0.52009892 0.33768392 4280556605
-0.9436236 0.52002513 0.33468792 4280754757
-0.93656605 0.52015591 0.33533719 4280558661
-0.92427796 0.52077752 0.33495656 4280099651
-0.91850114 0.52086842 0.33267182 4279771201
-1.0819442 0.56569391 0.33507335 4281680457
-1.0789016 0.56669855 0.33293241 4282733147
-1.0821658 0.57487237 0.33545384 4278521122
-1.0791767 0.57607859 0.33381009 4278455072
-1.081098 0.58178663 0.33514163 4278915370
-1.077911 0.58622992 0.33345467 4279177773
-1.0755962 0.59569359 0.33522755 4279833134
-1.0772722 0.60513639 0.33539054 4279899443
-1.081524 0.61381435 0.33709314 4280031283
-1.0780975 0.61435527 0.33395925 4279965746
-1.0819881 0.62710071 0.33783957 4279507509
-1.0775992 0.62382591 0.33360121 4279835187
-1.0817314 0.63309926 0.33523011 4279506996
-1.0785322 0.63586318 0.33352739 4279703861
-1.0817208 0.64514458 0.33537513 4279769143
-1.07902 0.64316732 0.33292326 4280031288
-1.0834638 0.65515101 0.33488777 4279769399
-1.0829659 0.66603631 0.33572832 4280621112
-1.0796068 0.66465354 0.33410561 4280227893
-1.0844252 0.67475748 0.33477318 4280752440
-1.0871223 0.68446302 0.3350412 4280884026
-1.0919057 0.69620204 0.336815 4280621881
-1.0886111 0.69372207 0.33353996 4280883769
-1.0948411 0.70560127 0.33497077 4280556345
-1.0948027 0.71561146 0.33540168 4280490809
-1.1003188 0.72657853 0.33766544 4280491836
-1.0967169 0.72362095 0.3343851 4280556858
-1.0953891 0.73458457 0.33500254 4280425529
-1.0959631 0.74479425 0.33533335 4280425531
-1.1023477 0.75601739 0.33630776 4280491580
-1.0981352 0.75241393 0.33303681 4280753982
-1.1038344 0.76486969 0.33497572 4280229434
-1.1051918 0.77531463 0.33553693 4280883772
-1.099123 0.77132171 0.33045721 4280753727
-1.1110886 0.78564286 0.33806214 4281212220
-1.1077754 0.78466624 0.33376676 4281342523
-1.1129874 0.79488647 0.33484229 4280622652
-1.1086862 0.79023743 0.33106318 4280294461
-1.1200303 0.80702674 0.33592033 4280689469
-1.1170886 0.80439222 0.33451873 4280557884
-1.1205131 0.81335539 0.33201447 4280492091
-1.1162359 0.81545573 0.33584857 4280754234
-1.1227305 0.82668567 0.33358777 4281081403
-1.1182212 0.8232078 0.33626342 4281081402
-1.1250184 0.83467162 0.33528545 4280623932
-1.1257297 0.8450945 0.33484748 4280754490
-1.1321348 0.85774946 0.33466882 4281279295
-1.1278869 0.85346031 0.33529729 4280886077
-1.1410027 0.86788785 0.33087584 4282067268
-1.135251 0.86445731 0.33539423 4281607232
-1.1525719 0.87885439 0.33564568 4281544261
-1.1444181 0.87537169 0.33446974 4281806149
-1.1373092 0.87181437 0.33610195 4281608770
-1.1554279 0.88165873 0.334782 4281478727
-1.5455827 0.32952261 0.3456929 4283782748
-1.5613784 0.33616018 0.34711966 4284509547
-1.5564138 0.33395156 0.34374383 4284312425
-1.5472806 0.33322042 0.34555197 4284179814
-1.5544789 0.34401435 0.3441315 4284509035
-1.5460943 0.35096475 0.34640303 4284508778
-0.64186341 0.41559473 0.34511474 4279904823
-0.63813257 0.41414666 0.34273329 4282604128
-0.64163756 0.4242644 0.34494486 4279702570
-0.63957649 0.42987552 0.34512764 4279833388
-0.64023709 0.43520293 0.34515736 4280096047
-0.63872069 0.43577099 0.34538111 4279964975
-0.64228731 0.44592333 0.34501401 4279638837
-0.6391356 0.44166958 0.34429488 4279638837
-0.64613461 0.45516324 0.34549326 4279769398
-0.65150726 0.46757311 0.34472188 4280098616
-0.64872575 0.46360457 0.34475398 4280228663
-0.66075528 0.47798815 0.34191242 4281018183
-0.65478152 0.47465378 0.34509787 4280427840
-0.67378902 0.4874711 0.3453441 4280427330
-0.66544473 0.4844645 0.34496415 4280296258
-0.65763044 0.48240644 0.34674928 4280428357
-0.71089029 0.49949208 0.34624991 4280753987
-0.7056542 0.49927971 0.34467909 4280426820
-0.69336015 0.49773908 0.34495142 4280230467
-0.68474811 0.49408036 0.34529021 4280492353
-0.67785233 0.49118248 0.3436631 4280230721
-0.7832005 0.508641 0.34754682 4280361797
-0.77583688 0.50890982 0.34245262 4280230979
-0.76453441 0.50928587 0.34439653 4280688706
-0.75528598 0.50945878 0.34539539 4280491843
-0.74547005 0.50811154 0.34505653 4280885318
-0.73458773 0.50660717 0.34500226 4280885316
-0.72546315 0.50390989 0.34476486 4280231235
-0.71512294 0.50175846 0.34522215 4280754499
-0.70931321 0.50131977 0.34545925 4280687680
-0.69698715 0.50012702 0.34696695 4279968837
-1.1186912 0.51910722 0.34535193 4279309608
-1.1023692 0.5175336 0.34137493 4280295229
-1.0953641 0.51838398 0.34608099 4280359994
-1.0860087 0.51659143 0.34372121 4280490808
-1.0723548 0.51761192 0.34350875 4280425272
-1.0667353 0.517461 0.34489807 4280228921
-1.0579833 0.51889086 0.34365097 4280294714
-1.0254357 0.51988006 0.34063479 4280753212
-1.012381 0.5199222 0.34628135 4279836219
-1.0050042 0.51847851 0.34204948 4279967550
-0.99536216 0.51863372 0.34104228 4279246652
-0.98396152 0.5189656 0.34450868 4280164929
-0.97513765 0.51930141 0.34369838 4280557889
-0.96618146 0.51940501 0.34327713 4280754242
-0.95438558 0.51994568 0.34361857 4280557634
-0.94793725 0.51998466 0.34459314 4280557892
-0.9301663 0.51868081 0.34409365 4280624198
-0.92517453 0.5187729 0.34299541 4280427588
-0.91531807 0.51901168 0.34399232 4280361538
-0.90503186 0.51860273 0.34524855 4280296002
-0.89553487 0.51793361 0.34461293 4280099393
-0.88706988 0.51727772 0.34425837 4279968577
-0.87485087 0.51852942 0.34516734 4280099649
-0.86425751 0.51832384 0.34545067 4280558146
-0.85518599 0.51655525 0.34498233 4280689219
-0.84412342 0.51494771 0.34515226 4280885572
-0.8360585 0.51286119 0.34448114 4280688451
-0.82433742 0.51232165 0.34502527 4280623942
-0.81395572 0.51317859 0.34592232 4280558406
-0.80481416 0.51399714 0.34476221 4280296518
-0.79463935 0.51255304 0.34472451 4280427077
-0.78561115 0.5108391 0.34436786 4280558149
-0.77454841 0.51102257 0.34594011 4280230724
-0.76829809 0.51112789 0.34730506 4280296003
-1.1201419 0.52137977 0.3458809 4279439391
-1.1150665 0.52182496 0.3443974 4279309092
-1.1034311 0.52271539 0.34700668 4280032566
-1.0972614 0.52223909 0.34682471 4280229178
-1.0747452 0.52061033 0.34818631 4279639093
-1.0683641 0.52082801 0.34815386 4279835961
-1.0544261 0.52095014 0.34947306 4279704888
-1.0448861 0.52126604 0.34513485 4280294457
-1.0345623 0.5217638 0.34545264 4280294200
-1.0252607 0.52195358 0.34496203 4280163386
-1.016137 0.52145624 0.34475464 4279835449
-1.0023888 0.52129 0.34646383 4280163901
-0.99349797 0.52074409 0.3469429 4280164158
-0.9863928 0.52106202 0.34590498 4279967807
-0.9741286 0.52144992 0.3498868 4279706174
-0.96415472 0.52179033 0.34889367 4280164671
-0.95341444 0.52200156 0.34879157 4280426303
-0.94459713 0.52031225 0.34488875 4280557891
-0.93486238 0.52065802 0.34540176 4280558405
-0.92714936 0.52080625 0.34709951 4280361540
-0.91729933 0.52104777 0.3489733 4280426819
-0.90934002 0.52128029 0.34980214 4280557635
-0.87691855 0.52050763 0.34826735 4279640383
-1.0828935 0.56539476 0.34530184 4281815126
-1.0796639 0.56724805 0.34101549 4281616461
-1.0826705 0.57528609 0.3443903 4279110688
-1.0776467 0.57673109 0.3486169 4279307553
-1.0815223 0.58438486 0.34235325 4279505703
-1.0775946 0.58658004 0.34539738 4279833641
-1.0809498 0.59310597 0.34650567 4279375148
-1.0773534 0.59567469 0.34522393 4279505709
-1.0823073 0.60514325 0.34528157 4279702578
-1.0773498 0.6021747 0.34419551 4279636528
-1.082045 0.61429358 0.34500688 4280423988
-1.0796907 0.61697471 0.34178296 4280096819
-1.0835224 0.62560707 0.34320974 4280031028
-1.0781316 0.62481695 0.34867176 4280226866
-1.0825613 0.63579267 0.34336057 4279638070
-1.0784229 0.63570768 0.34863037 4279506998
-1.0814829 0.64473766 0.34442118 4279638070
-1.0786511 0.64577049 0.34649277 4279572534
-1.0830518 0.6555723 0.34550214 4280228152
-1.0793495 0.65139598 0.34342813 4279769399
-1.0903312 0.66993618 0.34645447 4280162614
-1.0856701 0.665694 0.34455329 4280621111
-1.0905181 0.67678517 0.3495416 4280228404
-1.0876305 0.67496145 0.34483463 4280097079
-1.0905266 0.68428695 0.34405911 4280032055
-1.086948 0.68412566 0.34451684 4280031542
-1.0924814 0.69635618 0.34236476 4280228920
-1.0864894 0.69429958 0.3461324 4279901497
-1.1005156 0.70992124 0.34038761 4280425786
-1.0957807 0.70463455 0.34501463 4280556088
-1.0888057 0.70068777 0.34899682 4280294200
-1.0953585 0.71551567 0.3454721 4279901240
-1.1000648 0.72823244 0.34584683 4280163385
-1.0967091 0.7251845 0.34465158 4279901497
-1.1007857 0.73035252 0.34538415 4280556602
-1.0972804 0.73516232 0.34510186 4280818488
-1.1028409 0.74542588 0.34527206 4280425528
-1.0985864 0.74184376 0.34309164 4280686904
-1.1058533 0.75435054 0.34468681 4280426042
-1.1108916 0.76910877 0.34987587 4280754490
-1.1058785 0.76510626 0.34522641 4280098874
-1.1113431 0.77411836 0.34688902 4280687670
-1.1083328 0.77487689 0.34373629 4280688186
-1.1116894 0.7855354 0.345195 4280819514
-1.1082522 0.78387272 0.34484622 4280950586
-1.1123248 0.79667377 0.34418523 4280753981
-1.108519 0.79438072 0.34590733 4280687931
-1.1135862 0.80564255 0.34478772 4281015610
-1.1096263 0.80330139 0.34833562 4281081146
-1.1146131 0.81528777 0.34505627 4281081402
-1.1212704 0.82722872 0.34646219 4280688956
-1.1172935 0.82425302 0.34458315 4280819515
-1.1238496 0.83521348 0.34516546 4281017149
-1.1259519 0.84527224 0.34501737 4280755515
-1.1317147 0.85642105 0.34450427 4280820797
-1.1288933 0.85294062 0.34567353 4280689980
-1.1350509 0.86519307 0.34505785 4280886591
-1.1439636 0.87651259 0.34525406 4281478468
-1.1380574 0.87248892 0.3441264 4281346882
-1.1550559 0.88327283 0.34393126 4281674820
-1.1471854 0.88207871 0.34631246 4282134087
-1.5508522 0.32947695 0.35369539 4284377192
-1.5490956 0.32949215 0.35102788 4284048227
-1.5640697 0.33713201 0.35047817 4284444266
-1.5541708 0.33509123 0.35460156 4284378216
-1.545325 0.3332333 0.35822833 4284837228
-1.5242383 0.3388344 0.35743359 4279902243
-1.5549556 0.34458065 0.35554168 4284246885
-1.5522137 0.35091174 0.35569632 4284378215
-1.5487169 0.35094205 0.3503859 4284245861
-0.6462329 0.40861627 0.35316834 4282075990
-0.64409286 0.41474354 0.3546094 4279312947
-0.64119846 0.42461404 0.35546768 4279243561
-0.63941818 0.42691928 0.35627207 4279309096
-0.64055568 0.43602309 0.35299951 4280161840
-0.63853872 0.43491367 0.35453317 4279637294
-0.64226347 0.44587362 0.35395348 4280096563
-0.63872039 0.44311216 0.35718268 4280096564
-0.6441946 0.45465055 0.35535052 4279703347
-0.65048778 0.46705064 0.35786197 4280228660
-0.64767253 0.46427423 0.35525987 4279704372
-0.65238899 0.4756164 0.35517946 4280688956
-0.64906901 0.47184595 0.35415912 4280229431
-0.6734916 0.48848331 0.35303417 4280492610
-0.66450328 0.48668 0.35537341 4280426817
-0.65741044 0.4822056 0.35478529 4280755010
-0.71287131 0.49953321 0.35214877 4280492356
-0.70686293 0.4997806 0.3516804 4280493126
-0.69300681 0.49866101 0.35501108 4280164928
-0.68530017 0.49481988 0.35512355 4280492097
-0.67588508 0.49154854 0.35653591 4280557376
-0.77296263 0.5092302 0.35966024 4280492612
-0.76403004 0.50984871 0.35743079 4280557635
-0.75559384 0.50881183 0.35502332 4280426819
-0.74467212 0.50829345 0.35525882 4280557378
-0.73555845 0.50660092 0.35446408 4280754243
-0.7249046 0.50543332 0.35544756 4280427073
-0.71649504 0.50234967 0.35507694 4280099137
-0.70453751 0.50078088 0.35623047 4280688449
-0.69663554 0.50038189 0.35523853 4280427331
-1.1209925 0.51912844 0.35859364 4280359471
-1.1144521 0.51877809 0.35678083 4280556597
-1.1049954 0.51857913 0.35631302 4280686903
-1.0948368 0.51787055 0.35683352 4280621624
-1.0853949 0.51814383 0.35632139 4280359223
-1.0737405 0.5185321 0.35601076 4280228151
-1.0689231 0.51860803 0.3506254 4279311415
-1.0465497 0.5192132 0.35512903 4280163129
-1.0241346 0.51995015 0.35816982 4280098620
-1.0174514 0.51987827 0.35398167 4279835963
-1.0007644 0.5184651 0.35715711 4280622653
-0.99456334 0.51876646 0.35538009 4280294973
-0.98572785 0.51905745 0.35524836 4280032571
-0.97836161 0.51932454 0.35784522 4280098108
-0.95159167 0.51995289 0.3501429 4280294717
-0.94557583 0.51912165 0.35192019 4280229180
-0.93955439 0.51855737 0.35056013 4280493380
-0.90440047 0.51918036 0.35280961 4280361284
-0.89580405 0.51895982 0.35449678 4280558149
-0.8887369 0.518058 0.35229132 4280295746
-0.87132764 0.51903331 0.35653555 4280885059
-0.86556679 0.51788014 0.35499471 4280623425
-0.85540032 0.5162884 0.35504887 4280361794
-0.84471178 0.51561373 0.35382381 4280296258
-0.83438957 0.51653826 0.35571721 4280164417
-0.82578504 0.51461899 0.35505721 4280361283
-0.81440163 0.51487672 0.35516751 4280427076
-0.80565834 0.51388717 0.35546485 4280295748
-0.79513085 0.51270503 0.35441804 4280492100
-0.78574902 0.51164126 0.35474354 4280360514
-0.77429086 0.51229489 0.35551298 4280492098
-0.7649982 0.51156408 0.35390541 4280426563
-0.75940585 0.51169074 0.35104373 4280164161
-1.1210914 0.52140421 0.35707596 4279767587
-1.1161486 0.52184302 0.35253856 4279702311
-1.1038139 0.52213734 0.35191986 4280490806
-1.0950316 0.52063984 0.35195684 4280949306
-1.0895276 0.5202086 0.35128173 4281080636
-1.0743268 0.5207113 0.35334569 4279966519
-1.0639195 0.52078283 0.35554415 4279966519
-1.0544208 0.52108693 0.3554756 4279638582
-1.0478107 0.52134246 0.35384682 4279835705
-1.0323294 0.52311409 0.35494855 4280424760
-1.0250119 0.52190751 0.35447785 4279900728
-1.0149509 0.52023661 0.35971498 4280361279
-1.0057633 0.52107656 0.35528305 4280360252
-0.99566728 0.52076328 0.35324037 4280491838
-0.98683715 0.52099174 0.35184273 4280492096
-0.97367162 0.52142549 0.35312444 4279902526
-0.96428615 0.52303904 0.35562679 4280229950
-0.95533168 0.52256954 0.35555834 4280295229
-0.9436934 0.52188009 0.35590625 4280491068
-0.93464077 0.52093017 0.35625216 4280819776
-0.92455357 0.52093333 0.35507387 4280557889
-0.91476303 0.5211969 0.35522035 4280295745
-0.90575749 0.52150548 0.35651067 4280098624
-0.89408791 0.52093607 0.3563199 4280557892
-0.88324851 0.52143508 0.35716081 4280754500
-0.87523043 0.52089471 0.35534748 4280623426
-0.86910713 0.52100122 0.35173595 4280426817
-1.0804405 0.56682581 0.35520929 4283194467
-1.0779145 0.5679639 0.35544416 4283260518
-1.081242 0.57529128 0.35510868 4279175710
-1.0783726 0.57471991 0.3544468 4278782749
-1.0801513 0.5821774 0.35819218 4279570730
-1.0776206 0.58554101 0.35516003 4279832359
-1.0809181 0.59783161 0.35766205 4279504942
-1.0771182 0.59484673 0.35471281 4279898925
-1.0836598 0.60553044 0.35555732 4279571250
-1.0788012 0.60304511 0.35455221 4279636016
-1.0816315 0.61396754 0.35561165 4280357683
-1.0791284 0.61641014 0.35335782 4280357683
-1.0807732 0.62209994 0.35726419 4280817205
-1.0778357 0.62551987 0.35487929 4280423474
-1.0807285 0.63919932 0.35444799 4280162616
-1.0777006 0.63499421 0.35451367 4279768371
-1.0813956 0.64508367 0.35549155 4280096309
-1.079182 0.64453477 0.35504472 4280096822
-1.0835537 0.6544373 0.35537994 4280096564
-1.0792615 0.65116191 0.35128796 4280228407
-1.0905097 0.66928333 0.35502407 4280883765
-1.0859703 0.66466558 0.35465273 4280424757
-1.091059 0.67463708 0.35193306 4280424498
-1.0869417 0.67556691 0.3553777 4280556083
-1.0838604 0.68607521 0.35574195 4280555830
-1.0796596 0.68946022 0.35121131 4280096821
-1.0856482 0.69552159 0.35492536 4280032055
-1.0924821 0.70510513 0.35492292 4280293687
-1.089345 0.70315301 0.35582814 4280228407
-1.0932109 0.71548665 0.35496783 4280163129
-1.0897845 0.71440691 0.35802621 4280359738
-1.0959246 0.72528642 0.3548615 4280229433
-1.1011276 0.73606282 0.35687265 4280294714
-1.0967342 0.73551476 0.35491467 4280229433
-1.1030172 0.74513555 0.35552835 4280556344
-1.0977359 0.74187577 0.35305795 4280294455
-1.1043032 0.75477171 0.35422251 4280687672
-1.0996752 0.75828111 0.3584435 4280556344
-1.1121401 0.76909798 0.3517718 4281016378
-1.103471 0.76555949 0.35533255 4280688441
-1.1120259 0.77520221 0.35260239 4281015351
-1.1068006 0.77410084 0.35745302 4281080634
-1.1077012 0.78561628 0.35553488 4280884796
-1.1116554 0.79535627 0.35657254 4280164669
-1.1085351 0.79417259 0.35337251 4279967803
-1.1136525 0.80465585 0.35530952 4280492091
-1.1097993 0.80016673 0.35089338 4280426043
-1.1204613 0.81330317 0.3573949 4280623676
-1.1177416 0.81498408 0.35465768 4280688955
-1.1216811 0.82564074 0.35523006 4280426555
-1.1189054 0.82370812 0.35426378 4280688698
-1.1241301 0.83446282 0.35526475 4280754233
-1.1306969 0.84741795 0.35570574 4280165177
-1.1270635 0.84418559 0.35444084 4280428091
-1.1324255 0.85544145 0.35314086 4280558650
-1.1273152 0.85440004 0.35764414 4280558395
-1.1410561 0.86970878 0.35504317 4281673792
-1.135162 0.86531919 0.35478616 4281607485
-1.1294212 0.86353272 0.35957074 4280756284
-1.1436572 0.87556171 0.35447222 4281412164
-1.1383748 0.87227648 0.35692897 4281215297
-1.1526949 0.88376397 0.35517892 4281936708
-1.1478399 0.88115001 0.3549661 4282068295
-1.5494511 0.33763206 0.36124626 4284443495
-1.5268337 0.3388119 0.36137497 4280888881
-1.5531229 0.34499112 0.36140823 4283918178
-1.5434191 0.34477425 0.36449057 4284115301
-1.5340084 0.34460098 0.36798468 4284442984
-1.5239763 0.34235963 0.36618775 4282994001
-1.5119348 0.34395388 0.3683188 4280558381
-1.5472165 0.35209382 0.36487183 4283853158
-1.5374765 0.35139737 0.36825109 4283918694
-0.64145696 0.4156574 0.363601 4280497471
-0.6389854 0.41862455 0.36811867 4279051307
-0.64084989 0.42423406 0.36501339 4279244328
-0.63931572 0.42530772 0.36522678 4279113511
-0.6405564 0.43391177 0.36345142 4279309357
-0.63923466 0.43553174 0.36552113 4279309100
-0.64105856 0.44580629 0.36350963 4279440689
-0.63885421 0.44416031 0.36697617 4279374897
-0.643246 0.455071 0.3652257 4279441201
-0.63952339 0.45083591 0.36880147 4279310385
-0.65069509 0.46794736 0.36729556 4279704114
-0.64696795 0.46456307 0.36520466 4279769650
-0.65210593 0.47570032 0.36516574 4280228920
-0.6489861 0.47162679 0.36348242 4280098102
-0.67161036 0.48924458 0.36474845 4280491328
-0.66397387 0.48764187 0.36482784 4280229697
-0.65699285 0.48296472 0.36484134 4280819008
-0.69419312 0.49793369 0.36472917 4280426560
-0.68482298 0.49507967 0.36476952 4280491841
-0.67519635 0.49255013 0.36582845 4280491584
-0.66744375 0.49022543 0.36555043 4280425792
-0.77294278 0.50950933 0.36333644 4280295490
-0.76662165 0.50982291 0.36248636 4280426306
-0.75525743 0.50906241 0.36155662 4280163904
-0.74430603 0.50803649 0.36496535 4280164161
-0.7348237 0.50654823 0.36518282 4280492097
-0.72457319 0.5048185 0.36484596 4280230208
-0.71485192 0.50300622 0.36531019 4280427073
-0.7041657 0.50218904 0.36514702 4280622912
-0.69826591 0.50061417 0.36564007 4280622911
-1.1235626 0.51729071 0.36480409 4280097583
-1.1173908 0.51581579 0.36535022 4280098101
-1.1060158 0.51733869 0.36435181 4280031797
-1.0954871 0.51729554 0.36382511 4280163126
-1.0853236 0.51599008 0.36267987 4280162871
-1.0754734 0.51855129 0.36057287 4280556088
-1.0522341 0.51912141 0.36216322 4280293175
-1.0246015 0.51985091 0.36325046 4280228666
-1.0038981 0.51843792 0.36191615 4279901242
-0.9951632 0.51864982 0.36549795 4279573819
-0.98463482 0.51906002 0.36491877 4279639612
-0.97989029 0.51926118 0.36802506 4280164672
-0.93065161 0.51880193 0.36038223 4281409601
-0.89641881 0.51996744 0.36250988 4280689219
-0.87067086 0.51873201 0.36162934 4280426819
-0.86324805 0.51928288 0.36466596 4280360767
-0.85542732 0.51718682 0.36521757 4280622911
-0.8454299 0.51604986 0.36550826 4280688707
-0.83454627 0.5159992 0.36512029 4280098626
-0.82577395 0.51542199 0.36372703 4279902272
-0.81515449 0.51626635 0.36517125 4280099137
-0.80458343 0.51504451 0.3653478 4280229952
-0.79483801 0.5141291 0.36478618 4280295232
-0.78444237 0.5142234 0.3653115 4280229697
-0.77589458 0.5121513 0.36532214 4280360769
-0.76353425 0.51162845 0.36710986 4280688193
-0.7542572 0.51163495 0.36648393 4280754500
-0.74836558 0.51060921 0.36642644 4280623171
-1.1263665 0.52137089 0.36752236 4281808194
-1.084353 0.52060825 0.36760607 4279966775
-1.0750439 0.5209496 0.36794376 4279966263
-1.0644035 0.52176136 0.36494523 4280293686
-1.0554041 0.52217519 0.36569816 4280358967
-1.0498253 0.52157116 0.36650327 4280228152
-1.0333463 0.5246557 0.3652319 4280359224
-1.0277419 0.52298635 0.36602294 4280162616
-1.0139377 0.52155691 0.36552596 4280294716
-1.0062131 0.52087802 0.36578047 4280032058
-0.9959628 0.52091271 0.36570129 4279901756
-0.97158515 0.52187592 0.36489135 4279836221
