# .PCD v0.7 - Point Cloud Data file format
VERSION 0.7
FIELDS x y z rgba
SIZE 4 4 4 4
TYPE F F F U
COUNT 1 1 1 1
WIDTH 1086
HEIGHT 1
VIEWPOINT 0 0 0 1 0 0 0
POINTS 1086
DATA ascii
-0.91490763 0.52546328 0.40536401 4278821823
-0.90523213 0.52541941 0.40476173 4278821823
-0.89513195 0.52559596 0.40465489 4278821823
-0.88504773 0.52476114 0.40485328 4278821823
-0.87509751 0.52400655 0.40463933 4278821823
-0.86484581 0.52332175 0.40538627 4278821823
-0.85502774 0.52268684 0.40490559 4278821823
-0.84510112 0.52224958 0.40495238 4278821823
-0.83597004 0.52187961 0.40534356 4278821823
-0.82428408 0.52127963 0.40664223 4278821823
-0.81527203 0.52093548 0.40537801 4278821823
-0.80556571 0.5208112 0.40601206 4278821823
-0.79492021 0.52103257 0.40678152 4278821823
-0.7870338 0.52112371 0.40644032 4278821823
-0.77610195 0.52010226 0.40631884 4278821823
-1.11274 0.53133428 0.40205917 4278821823
-1.0542965 0.53114855 0.4032473 4278821823
-1.045687 0.53152579 0.40601233 4278821823
-1.0348946 0.53203917 0.409098 4278821823
-1.0246042 0.53015912 0.40675965 4278821823
-1.0181758 0.53043973 0.40639699 4278821823
-1.0065639 0.53085238 0.40242076 4278821823
-0.99219996 0.53009343 0.4035393 4278821823
-0.98908478 0.53006941 0.40012136 4278821823
-0.96098042 0.53062218 0.40820226 4278821823
-0.9555552 0.53058934 0.40900347 4278821823
-0.92388362 0.53016853 0.40721413 4278821823
-0.91642576 0.53041202 0.40839911 4278821823
-0.90608054 0.5308916 0.40915871 4278821823
-0.89925838 0.53194988 0.40055037 4278821823
-0.88102818 0.53195941 0.40657872 4278821823
-0.87620962 0.53144431 0.40857333 4278821823
-0.86333913 0.53224397 0.40838137 4278821823
-0.85919726 0.53123641 0.40527821 4278821823
-1.1205567 0.55529982 0.4056896 4278821823
-1.1177659 0.55451524 0.40412766 4278821823
-1.1075571 0.55851132 0.40235692 4278821823
-1.1214119 0.56193167 0.40700755 4278821823
-1.1149113 0.56588328 0.40456486 4278821823
-1.1081011 0.56516159 0.40445623 4278821823
-1.0835047 0.56793249 0.40446424 4278821823
-1.0783221 0.56853461 0.40504932 4278821823
-1.1230253 0.57859713 0.40125275 4278821823
-1.1147294 0.57476705 0.40500739 4278821823
-1.1088703 0.57575303 0.4039959 4278821823
-1.0826148 0.57549447 0.40458715 4278821823
-1.0786475 0.57562906 0.40463537 4278821823
-1.1240028 0.58528012 0.40453967 4278821823
-1.1160104 0.58518535 0.4060196 4278821823
-1.1061286 0.58597243 0.40460929 4278821823
-1.0820756 0.58460218 0.40463147 4278821823
-1.078367 0.5865227 0.40442172 4278821823
-1.1155664 0.5961321 0.40440178 4278821823
-1.1049944 0.5939523 0.40589583 4278821823
-1.0816367 0.59421343 0.40411729 4278821823
-1.0779141 0.59539831 0.40510571 4278821823
-1.1167457 0.6046772 0.40519708 4278821823
-1.1037552 0.60049039 0.40723321 4278821823
-1.0811027 0.60588795 0.4057045 4278821823
-1.078334 0.60428661 0.40475488 4278821823
-1.120118 0.61903125 0.40527385 4278821823
-1.1184367 0.61384463 0.40427196 4278821823
-1.0820578 0.61589593 0.40514073 4278821823
-1.0786598 0.61452878 0.40402621 4278821823
-1.1205959 0.62537944 0.40566149 4278821823
-1.112632 0.62579125 0.40484926 4278821823
-1.0827907 0.6249401 0.40447399 4278821823
-1.0788052 0.62491322 0.40565151 4278821823
-1.1213311 0.63545334 0.40536031 4278821823
-1.1133214 0.63642752 0.40570289 4278821823
-1.0831349 0.63534039 0.40498078 4278821823
-1.0784794 0.63478893 0.40349916 4278821823
-1.1220661 0.64552718 0.40505904 4278821823
-1.1140072 0.64505994 0.40508837 4278821823
-1.0908237 0.64574194 0.40110373 4278821823
-1.0834117 0.64456797 0.40443313 4278821823
-1.0785648 0.6454733 0.4053503 4278821823
-1.121655 0.65401095 0.40600917 4278821823
-1.1147677 0.65488863 0.40445691 4278821823
-1.1094279 0.65774083 0.40672779 4278821823
-1.0835558 0.65478629 0.40411195 4278821823
-1.0784346 0.65561527 0.40551832 4278821823
-1.1225028 0.66654688 0.40347829 4278821823
-1.1155552 0.66456741 0.40460992 4278821823
-1.090553 0.66785717 0.40425372 4278821823
-1.0844909 0.66490251 0.4044697 4278821823
-1.079291 0.66232455 0.40314484 4278821823
-1.1228426 0.67564595 0.40479869 4278821823
-1.1172528 0.67406917 0.4055315 4278821823
-1.0911112 0.67277598 0.40233994 4278821823
-1.0854198 0.67448801 0.4045558 4278821823
-1.1251497 0.68575543 0.40630355 4278821823
-1.1184238 0.68452322 0.40474415 4278821823
-1.0909497 0.68649083 0.40469962 4278821823
-1.0871238 0.68426824 0.40523314 4278821823
-1.1245002 0.69467998 0.4045929 4278821823
-1.0928639 0.69556475 0.40548939 4278821823
-1.0882814 0.6933887 0.4050785 4278821823
-1.1330595 0.70543498 0.40523991 4278821823
-1.1262938 0.70352346 0.4054172 4278821823
-1.1020427 0.70522279 0.4054994 4278821823
-1.0940148 0.70540059 0.40380803 4278821823
-1.08881 0.70322561 0.40426549 4278821823
-1.1313323 0.71647155 0.40489575 4278821823
-1.1264162 0.71501893 0.40509066 4278821823
-1.1019005 0.7154662 0.40680972 4278821823
-1.0947993 0.71529049 0.40517923 4278821823
-1.0890802 0.71622193 0.40579215 4278821823
-1.140532 0.72762805 0.40190613 4278821823
-1.134383 0.72526145 0.40433097 4278821823
-1.1286693 0.72408259 0.40569279 4278821823
-1.1013228 0.72758067 0.40548313 4278821823
-1.0955235 0.72559947 0.40505087 4278821823
-1.0880232 0.72519147 0.40435189 4278821823
-1.1354433 0.7355957 0.40582791 4278821823
-1.1285851 0.73399985 0.40488845 4278821823
-1.1010749 0.7360031 0.4047949 4278821823
-1.0969231 0.73456413 0.40529174 4278821823
-1.0890815 0.73220944 0.40250367 4278821823
-1.1428609 0.74565011 0.40557152 4278821823
-1.1360472 0.74434882 0.40528807 4278821823
-1.1293122 0.74482715 0.40208983 4278821823
-1.101361 0.74536365 0.40572512 4278821823
-1.0976135 0.74488997 0.4053354 4278821823
-1.1438829 0.75457472 0.40516233 4278821823
-1.1371174 0.75554866 0.40481412 4278821823
-1.1298372 0.7520228 0.40187466 4278821823
-1.1025715 0.75573695 0.40518081 4278821823
-1.098438 0.75377202 0.40412939 4278821823
-1.1451714 0.76644683 0.40504092 4278821823
-1.1379881 0.76458478 0.40464485 4278821823
-1.1102359 0.76908839 0.40420932 4278821823
-1.1040587 0.76496404 0.4045293 4278821823
-1.0960071 0.76517439 0.40846458 4278821823
-1.145909 0.77514458 0.4046905 4278821823
-1.1386647 0.77527303 0.40547827 4278821823
-1.1109098 0.77596051 0.40537569 4278821823
-1.1059079 0.77469438 0.40467018 4278821823
-1.0996088 0.77169132 0.40718225 4278821823
-1.1466179 0.78449553 0.40432954 4278821823
-1.1393209 0.78438163 0.40487131 4278821823
-1.1119391 0.78585345 0.40344325 4278821823
-1.1073492 0.78418368 0.40378824 4278821823
-1.1523999 0.79466212 0.40594697 4278821823
-1.1462884 0.79668319 0.40395004 4278821823
-1.139816 0.79138553 0.4040404 4278821823
-1.1122642 0.79513651 0.40352741 4278821823
-1.1082571 0.7929759 0.4055827 4278821823
-1.1548369 0.80581379 0.40438125 4278821823
-1.146508 0.80421853 0.40583205 4278821823
-1.1144588 0.80554283 0.40495557 4278821823
-1.1080462 0.80309963 0.40348536 4278821823
-1.1552055 0.81538934 0.40541744 4278821823
-1.1464871 0.81175184 0.40638039 4278821823
-1.120183 0.81573462 0.4055686 4278821823
-1.1170781 0.81520671 0.40519047 4278821823
-1.1095283 0.81154728 0.40080962 4278821823
-1.1622324 0.82744002 0.40519157 4278821823
-1.1555986 0.82385612 0.40445921 4278821823
-1.1230887 0.82602394 0.40477407 4278821823
-1.1180382 0.82441127 0.40445769 4278821823
-1.1736246 0.8385691 0.40470397 4278821823
-1.1635628 0.83556384 0.40472218 4278821823
-1.1560024 0.83368987 0.40554065 4278821823
-1.1307753 0.83854777 0.40495238 4278821823
-1.1253009 0.83477378 0.40509835 4278821823
-1.1191534 0.83219087 0.40616998 4278821823
-1.1758366 0.84652317 0.40698534 4278821823
-1.1650776 0.84498167 0.40449122 4278821823
-1.1550126 0.84714103 0.40990165 4278821823
-1.1316314 0.84482819 0.40373421 4278821823
-1.1269867 0.84487385 0.4054333 4278821823
-1.1918961 0.85896683 0.40253267 4278821823
-1.1850507 0.85598201 0.40444291 4278821823
-1.1751698 0.85503846 0.40489691 4278821823
-1.165885 0.85279059 0.40419269 4278821823
-1.1555235 0.85160333 0.40969706 4278821823
-1.1319754 0.85603333 0.40536839 4278821823
-1.1287469 0.85326982 0.40426391 4278821823
-1.1911492 0.86553359 0.4033505 4278821823
-1.1837691 0.86575794 0.40481132 4278821823
-1.1754971 0.86360222 0.40531507 4278821823
-1.1636187 0.86164296 0.40729862 4278821823
-1.141708 0.86675447 0.40310407 4278821823
-1.1345946 0.86507452 0.40497017 4278821823
-1.1292416 0.86223739 0.4052577 4278821823
-1.1930381 0.87398034 0.40264213 4278821823
-1.1834408 0.87257004 0.40558949 4278821823
-1.1419315 0.87239087 0.40424097 4278821823
-1.1383929 0.8722356 0.40623206 4278821823
-0.64548779 0.41756126 0.4144333 4278821823
-0.64389288 0.42442521 0.41522443 4278821823
-0.63906145 0.42792583 0.41351271 4278821823
-0.65269798 0.43794164 0.41379631 4278821823
-0.64177132 0.4355 0.41630396 4278821823
-0.63867128 0.43623501 0.41411358 4278821823
-0.65170389 0.44498137 0.41569185 4278821823
-0.64261639 0.44564676 0.41458306 4278821823
-0.63879538 0.44417056 0.41430593 4278821823
-0.65294951 0.45461342 0.41491967 4278821823
-0.64339918 0.45486259 0.41392064 4278821823
-0.6386171 0.45364571 0.41488507 4278821823
-0.65224391 0.46776652 0.41683638 4278821823
-0.64441752 0.464975 0.41497305 4278821823
-0.63865119 0.46292129 0.41474044 4278821823
-0.66212058 0.47761777 0.41241577 4278821823
-0.65325081 0.47636804 0.41464418 4278821823
-0.64750743 0.47391316 0.41460928 4278821823
-0.63921607 0.47109067 0.41127047 4278821823
-0.67198801 0.48867142 0.4134247 4278821823
-0.66271442 0.48773879 0.41477534 4278821823
-0.65608275 0.4840228 0.41522986 4278821823
-0.64867198 0.48154935 0.41657192 4278821823
-0.69195783 0.49916115 0.4145062 4278821823
-0.68441725 0.4981679 0.41506606 4278821823
-0.67498744 0.4953362 0.41491437 4278821823
-0.6664353 0.49223939 0.41588935 4278821823
-0.65867269 0.49082452 0.41494101 4278821823
-1.1227945 0.50743693 0.41902721 4278821823
-1.1155155 0.50760406 0.41498807 4278821823
-1.1075758 0.50844777 0.41549733 4278821823
-1.0978465 0.50939709 0.41537875 4278821823
-1.0625243 0.50977886 0.41851842 4278821823
-1.0551375 0.50742298 0.41766372 4278821823
-0.97141349 0.50998491 0.41237906 4278821823
-0.94594848 0.5081929 0.41169375 4278821823
-0.76067805 0.50954282 0.41581765 4278821823
-0.75646663 0.50984716 0.41380382 4278821823
-0.74195713 0.50904274 0.41460732 4278821823
-0.73314208 0.50910538 0.41549078 4278821823
-0.72482425 0.50846934 0.41526785 4278821823
-0.71452343 0.50693738 0.41506952 4278821823
-0.70486861 0.5047555 0.41497377 4278821823
-0.69515246 0.50235993 0.41516143 4278821823
-0.6885289 0.50087506 0.41481522 4278821823
-1.1316016 0.51415616 0.41819322 4278821823
-1.1233523 0.51416951 0.41510981 4278821823
-1.1141397 0.51662534 0.41474912 4278821823
-1.1091211 0.51998961 0.41489005 4278821823
-1.0847293 0.51175898 0.41486454 4278821823
-1.0776558 0.51108837 0.41596866 4278821823
-1.0661552 0.51228201 0.41526034 4278821823
-1.0555011 0.51208776 0.41456553 4278821823
-1.0460013 0.51246035 0.41349894 4278821823
-1.0335124 0.51361156 0.41492543 4278821823
-1.0235264 0.51645744 0.4195053 4278821823
-1.0164258 0.51534504 0.41438863 4278821823
-1.0064262 0.51474458 0.41514024 4278821823
-0.9959271 0.51585954 0.41446888 4278821823
-0.98629636 0.5153721 0.41460323 4278821823
-0.97596586 0.5143345 0.41562259 4278821823
-0.96600521 0.51325941 0.41677096 4278821823
-0.95374703 0.51501966 0.41444579 4278821823
-0.94541425 0.51306283 0.41575131 4278821823
-0.93496716 0.51475388 0.41766423 4278821823
-0.8631494 0.51974344 0.41429591 4278821823
-0.85642499 0.51981789 0.41268525 4278821823
-0.84134758 0.51930046 0.41588312 4278821823
-0.83497733 0.51918 0.41480884 4278821823
-0.82369018 0.51911712 0.41438854 4278821823
-0.81465906 0.51894844 0.41505203 4278821823
-0.8048504 0.5188638 0.41524473 4278821823
-0.79511976 0.51763552 0.41495812 4278821823
-0.78488052 0.51671296 0.41513741 4278821823
-0.77482414 0.5159753 0.4149982 4278821823
-0.76459777 0.51499957 0.41503313 4278821823
-0.75524473 0.51338983 0.41502038 4278821823
-0.74516642 0.5121451 0.41493067 4278821823
-0.73602861 0.51150221 0.41553316 4278821823
-0.72652537 0.51167673 0.41538477 4278821823
-0.71798915 0.51076561 0.41397586 4278821823
-1.1235387 0.52337611 0.41734135 4278821823
-1.1141604 0.52416855 0.41594163 4278821823
-1.1049536 0.52396947 0.41396734 4278821823
-1.0953869 0.52402884 0.4147799 4278821823
-1.0848452 0.52484673 0.41501629 4278821823
-1.0751098 0.52463335 0.41490579 4278821823
-1.0649759 0.52489913 0.41534486 4278821823
-1.0552319 0.52532035 0.41487017 4278821823
-1.0454105 0.52540004 0.41488323 4278821823
-1.0350593 0.52573329 0.41508558 4278821823
-1.0249033 0.52621955 0.41435924 4278821823
-1.0144812 0.52665776 0.41508219 4278821823
-1.0050234 0.52658606 0.41486949 4278821823
-0.99452895 0.52727461 0.41501164 4278821823
-0.98484367 0.52735883 0.4147408 4278821823
-0.97575659 0.52706319 0.41499725 4278821823
-0.96452987 0.52728176 0.41522151 4278821823
-0.95490658 0.52702564 0.41448554 4278821823
-0.94526958 0.52621013 0.41504079 4278821823
-0.93498945 0.52621931 0.41497803 4278821823
-0.92502421 0.52628917 0.41511536 4278821823
-0.91522163 0.52608794 0.41514611 4278821823
-0.90506876 0.52572614 0.41515329 4278821823
-0.89517879 0.52536249 0.41506237 4278821823
-0.88482207 0.52482218 0.41508278 4278821823
-0.87517011 0.52393627 0.41497293 4278821823
-0.86513501 0.52399969 0.41481203 4278821823
-0.85493082 0.52323067 0.41508859 4278821823
-0.84510088 0.52252746 0.41515082 4278821823
-0.83506644 0.52235216 0.41470394 4278821823
-0.82566571 0.52143383 0.4147757 4278821823
-0.81649292 0.52133006 0.41501698 4278821823
-0.80639219 0.52162009 0.41453218 4278821823
-0.79574603 0.52125269 0.41517544 4278821823
-0.78717077 0.52055311 0.41616994 4278821823
-0.77311695 0.52024311 0.41485515 4278821823
-0.76932323 0.52081382 0.4172914 4278821823
-1.1044326 0.53112018 0.41445604 4278821823
-1.0758026 0.53016424 0.4179377 4278821823
-1.0692022 0.53040999 0.41860011 4278821823
-1.032657 0.53124219 0.41459167 4278821823
-1.0239247 0.53130144 0.41300625 4278821823
-1.0165802 0.53160864 0.4178046 4278821823
-1.0096985 0.53090173 0.4191038 4278821823
-0.97358513 0.53033417 0.4181304 4278821823
-0.96444219 0.53052855 0.41466707 4278821823
-0.95322573 0.53047389 0.41680443 4278821823
-0.94778383 0.53082252 0.41662163 4278821823
-0.9226234 0.53018695 0.4149285 4278821823
-0.91620839 0.53062803 0.41594017 4278821823
-0.90848422 0.5308615 0.41151953 4278821823
-0.86330307 0.53288817 0.41245022 4278821823
-0.85377473 0.53041363 0.41750982 4278821823
-1.1211588 0.55642629 0.41364804 4278821823
-1.1158081 0.55685353 0.41605189 4278821823
-1.1218171 0.56263888 0.41246486 4278821823
-1.1153569 0.56513739 0.41622365 4278821823
-1.1082122 0.5644787 0.41079658 4278821823
-1.0906363 0.56825364 0.4190647 4278821823
-1.0863676 0.56828916 0.41495669 4278821823
-1.0749443 0.56892824 0.41806072 4278821823
-1.1238806 0.57911587 0.41470388 4278821823
-1.1160803 0.57342064 0.41395628 4278821823
-1.1093502 0.57756507 0.41758698 4278821823
-1.0904697 0.57366228 0.41539565 4278821823
-1.0839368 0.57612079 0.41544101 4278821823
-1.0775906 0.57337838 0.41421354 4278821823
-1.0696814 0.57509422 0.41989768 4278821823
-1.1241263 0.5820331 0.41307291 4278821823
-1.1133404 0.5870713 0.41559005 4278821823
-1.1090457 0.58544981 0.41700649 4278821823
-1.0827904 0.58404326 0.41483608 4278821823
-1.0783975 0.58680993 0.41513261 4278821823
-1.1153991 0.59565675 0.41561317 4278821823
-1.1066134 0.59444535 0.41592294 4278821823
-1.0816429 0.59521067 0.41490445 4278821823
-1.0777895 0.59542274 0.41448587 4278821823
-1.1149013 0.60483098 0.41564572 4278821823
-1.1039127 0.60064977 0.41294813 4278821823
-1.0818455 0.60507894 0.4151794 4278821823
-1.0771331 0.60479295 0.41447636 4278821823
-1.1202757 0.61781996 0.41496223 4278821823
-1.1159582 0.61395073 0.41485924 4278821823
-1.0820404 0.61536676 0.41547924 4278821823
-1.0778464 0.61451995 0.41390219 4278821823
-1.1208345 0.62562084 0.41431651 4278821823
-1.1130761 0.62437367 0.41517797 4278821823
-1.082263 0.62503892 0.41389304 4278821823
-1.0785817 0.62363642 0.41525504 4278821823
-1.1218116 0.63384032 0.41470671 4278821823
-1.1136799 0.63623214 0.41482186 4278821823
-1.0836793 0.63486278 0.41392827 4278821823
-1.0786166 0.63336182 0.41736329 4278821823
-1.1222682 0.64466566 0.41547945 4278821823
-1.114417 0.64488399 0.4144727 4278821823
-1.0901059 0.64402312 0.41684031 4278821823
-1.0831385 0.64515805 0.4148438 4278821823
-1.0787398 0.64552516 0.41580427 4278821823
-1.1229744 0.65444368 0.41489831 4278821823
-1.1149766 0.65484893 0.41452146 4278821823
-1.0830529 0.65512639 0.41477871 4278821823
-1.0792015 0.65316081 0.41330457 4278821823
-1.1226095 0.66690928 0.41618001 4278821823
-1.1151865 0.66533643 0.41494673 4278821823
-1.0842088 0.6648497 0.41431707 4278821823
-1.1230452 0.67471349 0.41459906 4278821823
-1.1157303 0.67424691 0.41561288 4278821823
-1.0906121 0.67660648 0.41806605 4278821823
-1.0866669 0.67449868 0.41457182 4278821823
-1.1325586 0.68917829 0.41496864 4278821823
-1.1252367 0.68511897 0.41521302 4278821823
-1.116393 0.6822719 0.41619995 4278821823
-1.0914526 0.68627691 0.41446739 4278821823
-1.0880554 0.68387318 0.41402474 4278821823
-1.1343493 0.69716883 0.41489172 4278821823
-1.1261705 0.69503373 0.41505393 4278821823
-1.0922717 0.69512445 0.41474858 4278821823
-1.0888789 0.69436359 0.41554841 4278821823
-1.1332406 0.70412207 0.41304505 4278821823
-1.1263546 0.70513624 0.41552612 4278821823
-1.0929675 0.70441991 0.41517138 4278821823
-1.0892206 0.70669651 0.41617873 4278821823
-1.1338507 0.71333992 0.41178775 4278821823
-1.1268526 0.71523768 0.41514504 4278821823
-1.1007895 0.71888 0.4149096 4278821823
-1.0925862 0.71467483 0.41429406 4278821823
-1.0888414 0.71480006 0.41578564 4278821823
-1.1346126 0.72538221 0.4113512 4278821823
-1.1276172 0.72498918 0.41530219 4278821823
-1.1015636 0.725281 0.41288763 4278821823
-1.0952711 0.7246204 0.41555756 4278821823
-1.0894337 0.72211081 0.41448423 4278821823
-1.135528 0.73699254 0.41425514 4278821823
-1.1283306 0.73338145 0.41575268 4278821823
-1.1011945 0.73547053 0.41449553 4278821823
-1.0976884 0.73421949 0.41465145 4278821823
-1.1365714 0.7458275 0.414608 4278821823
-1.1282809 0.74241567 0.41615462 4278821823
-1.102249 0.74538106 0.41471967 4278821823
-1.0979657 0.74427176 0.41482034 4278821823
-1.137273 0.75509161 0.41494712 4278821823
-1.1044978 0.75491458 0.41500983 4278821823
-1.0934414 0.75462258 0.41192293 4278821823
-1.1454867 0.76712823 0.41416353 4278821823
-1.1380473 0.76450402 0.41540256 4278821823
-1.110715 0.76763147 0.41041625 4278821823
-1.1057209 0.76524121 0.41546938 4278821823
-1.0947407 0.76450104 0.41095364 4278821823
-1.1458434 0.77519172 0.41495457 4278821823
-1.1388483 0.77404958 0.41666725 4278821823
-1.1109413 0.7775324 0.41599932 4278821823
-1.1068455 0.77485037 0.41487399 4278821823
-1.1523401 0.78841913 0.41288686 4278821823
-1.1432413 0.78594947 0.41513687 4278821823
-1.139629 0.7838617 0.41436118 4278821823
-1.1116616 0.78595442 0.41531768 4278821823
-1.1085941 0.78365988 0.41473851 4278821823
-1.1528219 0.79832113 0.41537848 4278821823
-1.1435713 0.79516178 0.4150022 4278821823
-1.1399424 0.79036593 0.41194296 4278821823
-1.113444 0.79375988 0.41515729 4278821823
-1.1089714 0.79145002 0.4132289 4278821823
-1.1513859 0.80606049 0.41562912 4278821823
-1.1468575 0.80492377 0.41477486 4278821823
-1.12094 0.80851841 0.41346306 4278821823
-1.1153001 0.80486661 0.41485268 4278821823
-1.1093814 0.80608445 0.41957909 4278821823
-1.1543967 0.81535119 0.41445011 4278821823
-1.1471281 0.81209844 0.41391444 4278821823
-1.1205633 0.81720227 0.41349065 4278821823
-1.1165762 0.81521916 0.41511482 4278821823
-1.162322 0.82643193 0.41396487 4278821823
-1.1548827 0.82389849 0.41528645 4278821823
-1.1224706 0.82543182 0.41437697 4278821823
-1.1184865 0.82330543 0.4154368 4278821823
-1.1739879 0.83742458 0.41448084 4278821823
-1.1642355 0.83460885 0.41497239 4278821823
-1.1541311 0.8344391 0.41599679 4278821823
-1.124953 0.83565217 0.41497275 4278821823
-1.1189615 0.83262372 0.41607022 4278821823
-1.1855456 0.84826428 0.41160911 4278821823
-1.1763361 0.84640872 0.41478848 4278821823
-1.1648073 0.84584689 0.41565391 4278821823
-1.154952 0.84408432 0.4149417 4278821823
-1.1312428 0.84708762 0.41567332 4278821823
-1.1274347 0.84443867 0.41532311 4278821823
-1.1853724 0.85601717 0.41414496 4278821823
-1.1756322 0.85570353 0.41576916 4278821823
-1.1661912 0.85365307 0.41529334 4278821823
-1.1557137 0.8517186 0.4126862 4278821823
-1.1324916 0.85580552 0.41551059 4278821823
-1.128829 0.85305154 0.41438705 4278821823
-1.1921225 0.8658638 0.41435239 4278821823
-1.1832169 0.86466277 0.41541636 4278821823
-1.1758226 0.86234885 0.41493154 4278821823
-1.163905 0.86181664 0.41180158 4278821823
-1.1349453 0.86475134 0.41479549 4278821823
-1.1946106 0.87312222 0.41601673 4278821823
-1.1840177 0.87169993 0.41262752 4278821823
-1.141386 0.87302852 0.41633677 4278821823
-1.1387155 0.8722254 0.4134416 4278821823
-0.64606696 0.41661254 0.42315188 4278821823
-0.63963079 0.41994178 0.42825606 4278821823
-0.64363343 0.42543739 0.42466655 4278821823
-0.63921213 0.42727455 0.42556334 4278821823
-0.65293318 0.43864575 0.42558026 4278821823
-0.64247775 0.43407047 0.42539147 4278821823
-0.63844949 0.43523383 0.42551827 4278821823
-0.65336937 0.4452295 0.42463624 4278821823
-0.64323354 0.44465819 0.42454538 4278821823
-0.63847345 0.4441562 0.42552927 4278821823
-0.65206915 0.45712209 0.42512178 4278821823
-0.64302379 0.45556903 0.42490131 4278821823
-0.63834769 0.45500258 0.42516747 4278821823
-0.65174145 0.46548423 0.42431831 4278821823
-0.64477354 0.46511808 0.42523351 4278821823
-0.63936543 0.46291408 0.42308864 4278821823
-0.66069418 0.47845763 0.42520666 4278821823
-0.65268642 0.475768 0.424707 4278821823
-0.64720434 0.47386423 0.42482379 4278821823
-0.67062652 0.48954552 0.4253363 4278821823
-0.66238195 0.48843643 0.42556995 4278821823
-0.65551454 0.48487264 0.42505145 4278821823
-0.64832461 0.48217049 0.42492533 4278821823
-0.69103402 0.49892837 0.42187691 4278821823
-0.68386686 0.49883652 0.42428079 4278821823
-0.67458075 0.49590173 0.42491904 4278821823
-0.66600829 0.49219152 0.42508143 4278821823
-0.65860134 0.49117804 0.42407927 4278821823
-1.0964295 0.50970185 0.42066547 4278821823
-0.74226952 0.50945091 0.42855847 4278821823
-0.73307478 0.5092963 0.42575148 4278821823
-0.72463471 0.50879174 0.42464051 4278821823
-0.71485728 0.50746781 0.42501712 4278821823
-0.70512289 0.50537395 0.42497754 4278821823
-0.69523042 0.50286776 0.42510536 4278821823
-0.68616402 0.50135761 0.4265016 4278821823
-0.67770684 0.50050038 0.42672807 4278821823
-1.132329 0.51739097 0.42408884 4278821823
-1.1225779 0.51686227 0.42572546 4278821823
-1.1167295 0.51318479 0.42446411 4278821823
-1.1038064 0.51383555 0.42636406 4278821823
-1.0934603 0.51295859 0.42369846 4278821823
-1.0854429 0.51314235 0.42420131 4278821823
-1.0744712 0.51385057 0.42487177 4278821823
-1.0635333 0.51485485 0.42552865 4278821823
-1.0562907 0.51345533 0.42521605 4278821823
-1.0462713 0.51349205 0.42626759 4278821823
-1.0342727 0.51477379 0.42548966 4278821823
-1.0272727 0.51627994 0.42351723 4278821823
-1.0133562 0.51714283 0.4252525 4278821823
-1.0046036 0.51592112 0.425414 4278821823
-0.99654329 0.51623321 0.42415839 4278821823
-0.98454136 0.51761413 0.4252623 4278821823
-0.97521496 0.51457411 0.42416546 4278821823
-0.96399802 0.51377732 0.4256672 4278821823
-0.95362371 0.51496464 0.42574629 4278821823
-0.94427508 0.51296657 0.42511395 4278821823
-0.93513632 0.51485646 0.4203237 4278821823
-0.84301794 0.51895261 0.42108721 4278821823
-0.83569074 0.51910985 0.4227232 4278821823
-0.82238305 0.51883107 0.42547208 4278821823
-0.81432742 0.51851982 0.42435789 4278821823
-0.80384755 0.51839036 0.42435375 4278821823
-0.79444093 0.51796937 0.42460525 4278821823
-0.78477877 0.51700372 0.4253186 4278821823
-0.77507997 0.51639152 0.42478499 4278821823
-0.76488566 0.51519382 0.42502391 4278821823
-0.75533617 0.51373601 0.42519841 4278821823
-0.74487418 0.51253349 0.42490882 4278821823
-0.7354961 0.51150632 0.42468843 4278821823
-0.72556871 0.51049954 0.42565173 4278821823
-0.71697152 0.51034063 0.42421657 4278821823
-0.70918953 0.51075947 0.42572942 4278821823
-1.1308794 0.52509379 0.42794037 4278821823
-1.1241918 0.52376306 0.42500257 4278821823
-1.1146717 0.52484655 0.42530984 4278821823
-1.1050098 0.52496588 0.42500338 4278821823
-1.0943154 0.52553004 0.42441085 4278821823
-1.0854372 0.52545172 0.42468229 4278821823
-1.0751568 0.52527684 0.42487288 4278821823
-1.0651338 0.52546638 0.42490962 4278821823
-1.0548555 0.52554852 0.42505014 4278821823
-1.0452117 0.52578133 0.42531502 4278821823
-1.034963 0.52636427 0.42509285 4278821823
-1.0246452 0.52714998 0.42512667 4278821823
-1.0154012 0.5263446 0.42502218 4278821823
-1.0042654 0.52783763 0.42429334 4278821823
-0.99493223 0.52811086 0.42507759 4278821823
-0.98498821 0.52762854 0.42486173 4278821823
-0.97483057 0.52722669 0.42552587 4278821823
-0.96474552 0.52738702 0.42535523 4278821823
-0.95475262 0.52768314 0.42516494 4278821823
-0.94495565 0.52709192 0.42521119 4278821823
-0.93490183 0.52692145 0.42481089 4278821823
-0.92470211 0.52649993 0.42512825 4278821823
-0.91517961 0.52617306 0.42492723 4278821823
-0.90489656 0.52594906 0.4252255 4278821823
-0.89468443 0.5257684 0.42504507 4278821823
-0.88534832 0.5248313 0.42492506 4278821823
-0.87506706 0.52445561 0.42518592 4278821823
-0.86498684 0.52388555 0.42498356 4278821823
-0.8542012 0.52445906 0.4244245 4278821823
-0.84511882 0.52333963 0.42486691 4278821823
-0.83540034 0.52245152 0.42505166 4278821823
-0.82526052 0.52207965 0.4251155 4278821823
-0.81718665 0.5215292 0.42525879 4278821823
-0.80531168 0.52177233 0.42491677 4278821823
-0.79546213 0.52104264 0.42490673 4278821823
-0.78783631 0.52115059 0.42582691 4278821823
-0.7711761 0.52071834 0.42060557 4278821823
-0.76784718 0.52028239 0.42902988 4278821823
-1.081462 0.53020793 0.42414707 4278821823
-1.0759789 0.53124565 0.42688549 4278821823
-1.0365964 0.53138638 0.42089099 4278821823
-1.0238379 0.53132939 0.42736903 4278821823
-1.0130825 0.53057426 0.42453712 4278821823
-1.0052769 0.53121579 0.42463303 4278821823
-0.99494004 0.53126621 0.42775521 4278821823
-0.98476768 0.53038478 0.42566118 4278821823
-0.97473615 0.5303998 0.4247773 4278821823
-0.96340513 0.53100139 0.42489383 4278821823
-0.95470542 0.5313645 0.42258614 4278821823
-0.94524866 0.53102624 0.42506701 4278821823
-0.92381358 0.53043926 0.42595267 4278821823
-0.91809916 0.53074121 0.42096281 4278821823
-1.1226718 0.55064911 0.42781165 4278821823
-1.1150243 0.55815387 0.42413318 4278821823
-1.1158869 0.56676543 0.42472982 4278821823
-1.1069447 0.56674612 0.42572686 4278821823
-1.0916166 0.56640112 0.4272902 4278821823
-1.0852855 0.56744719 0.42596376 4278821823
-1.0786545 0.56834668 0.42487603 4278821823
-1.1165168 0.57392919 0.42480096 4278821823
-1.1094801 0.57663584 0.42537102 4278821823
-1.0901828 0.57181227 0.42554358 4278821823
-1.0859756 0.57521737 0.42483863 4278821823
-1.07665 0.57514149 0.42389011 4278821823
-1.1102792 0.58778787 0.42446303 4278821823
-1.109405 0.58312708 0.42456156 4278821823
-1.0825864 0.58469588 0.42422956 4278821823
-1.0781264 0.58687401 0.42420515 4278821823
-1.1124226 0.59555042 0.42475957 4278821823
-1.1067152 0.59457225 0.42638516 4278821823
-1.0821608 0.59515208 0.4247691 4278821823
-1.0782176 0.59503251 0.42481154 4278821823
-1.1139513 0.6036334 0.4242188 4278821823
-1.1045895 0.60649848 0.42649522 4278821823
-1.0816967 0.60555661 0.42381802 4278821823
-1.0787762 0.60552609 0.42541146 4278821823
-1.1203023 0.61466211 0.42514375 4278821823
-1.1199431 0.61139053 0.42051676 4278821823
-1.1055409 0.61526322 0.4252077 4278821823
-1.0824553 0.61405855 0.42448372 4278821823
-1.0784627 0.61490512 0.42282328 4278821823
-1.1210074 0.62446332 0.42445695 4278821823
-1.106298 0.62240911 0.42384684 4278821823
-1.0990249 0.6279701 0.42628056 4278821823
-1.0818298 0.62541199 0.42552701 4278821823
-1.0782461 0.62464237 0.42342654 4278821823
-1.1217823 0.63457751 0.4255982 4278821823
-1.1142042 0.63814396 0.42290401 4278821823
-1.1073041 0.63677168 0.42603964 4278821823
-1.0995045 0.63291651 0.42458501 4278821823
-1.0819486 0.63548982 0.42510742 4278821823
-1.0789843 0.63508546 0.42494887 4278821823
-1.1225175 0.64465147 0.42529699 4278821823
-1.1148388 0.64475226 0.42491844 4278821823
-1.1087991 0.64234847 0.4266229 4278821823
-1.0833762 0.6453917 0.42514098 4278821823
-1.0793233 0.64183336 0.42455071 4278821823
-1.1232524 0.65472531 0.42499575 4278821823
-1.1122731 0.65585047 0.42529985 4278821823
-1.1098436 0.65185207 0.42544916 4278821823
-1.0844665 0.65529007 0.42495653 4278821823
-1.1241125 0.66625851 0.42537272 4278821823
-1.1139859 0.66535807 0.42482996 4278821823
-1.090818 0.66641974 0.4271574 4278821823
-1.0864559 0.66504496 0.42469075 4278821823
-1.1233251 0.6762647 0.42232484 4278821823
-1.1137211 0.67495334 0.42493567 4278821823
-1.0907254 0.67492199 0.42423597 4278821823
-1.0872369 0.67498171 0.42520255 4278821823
-1.1234049 0.68645328 0.42386213 4278821823
-1.1144921 0.6840387 0.4257412 4278821823
-1.0907928 0.68636298 0.42286628 4278821823
-1.0873704 0.68417358 0.42521048 4278821823
-1.1332924 0.69489384 0.42722735 4278821823
-1.1249257 0.69496411 0.42460144 4278821823
-1.1148635 0.69378841 0.42721674 4278821823
-1.0914743 0.69543755 0.42361251 4278821823
-1.0878565 0.69450372 0.42501676 4278821823
-1.13393 0.70422184 0.42524967 4278821823
-1.1263629 0.70450944 0.42416131 4278821823
-1.0920244 0.7064153 0.42469019 4278821823
-1.0890734 0.70277822 0.42348766 4278821823
-1.134813 0.71589273 0.42613333 4278821823
-1.1271478 0.71474296 0.42440811 4278821823
-1.1000035 0.71902686 0.4239144 4278821823
-1.0943351 0.71516925 0.42482463 4278821823
-1.0875436 0.71483165 0.42081034 4278821823
-1.1328161 0.72574317 0.42632604 4278821823
-1.1278811 0.72394627 0.42343166 4278821823
-1.1014819 0.72796011 0.42606428 4278821823
-1.0969526 0.7246086 0.42494306 4278821823
-1.1339231 0.73616606 0.42562342 4278821823
-1.1279035 0.73536026 0.4248457 4278821823
-1.1016158 0.73598224 0.42443195 4278821823
-1.0980492 0.73503041 0.42485088 4278821823
-1.1361593 0.74468511 0.42502019 4278821823
-1.1274893 0.74413061 0.42154765 4278821823
-1.1028469 0.74508762 0.42396292 4278821823
-1.098075 0.7444768 0.42638054 4278821823
-1.1376306 0.75452036 0.4247373 4278821823
-1.1041417 0.75483102 0.42415866 4278821823
-1.0984402 0.75698346 0.42826521 4278821823
-1.1459517 0.76994872 0.42631182 4278821823
-1.1384321 0.76506358 0.42483106 4278821823
-1.1105047 0.76702672 0.42265549 4278821823
-1.1048708 0.76479512 0.42527905 4278821823
-1.0991403 0.76159406 0.42610195 4278821823
-1.1430826 0.77715015 0.42658281 4278821823
-1.1391678 0.77417821 0.42432728 4278821823
-1.1057568 0.7751922 0.42491242 4278821823
-1.142429 0.78619009 0.42575535 4278821823
-1.1398928 0.78275436 0.42352355 4278821823
-1.1118675 0.78673816 0.42341352 4278821823
-1.1076139 0.7842415 0.42562306 4278821823
-1.1435087 0.79505152 0.42492187 4278821823
-1.1127256 0.79443568 0.42493263 4278821823
-1.1085303 0.79313463 0.42629728 4278821823
-1.1519179 0.80731153 0.42288268 4278821823
-1.1457738 0.80520034 0.42609224 4278821823
-1.1205684 0.8072902 0.42183164 4278821823
-1.1135964 0.80466568 0.42500946 4278821823
-1.108956 0.80530798 0.42676899 4278821823
-1.1609768 0.81880945 0.42573407 4278821823
-1.1545053 0.81590086 0.42415297 4278821823
-1.1462123 0.81266022 0.4268823 4278821823
-1.1204698 0.81701779 0.4260397 4278821823
-1.1156211 0.81492233 0.42514071 4278821823
-1.1096137 0.81126654 0.42471886 4278821823
-1.1622885 0.82542896 0.42583099 4278821823
-1.1552447 0.82497525 0.42422628 4278821823
-1.1497071 0.82197344 0.42814174 4278821823
-1.1217382 0.8274557 0.4245708 4278821823
-1.117569 0.82406271 0.42420402 4278821823
-1.1742131 0.83958441 0.42341197 4278821823
-1.1631906 0.83525276 0.42569739 4278821823
-1.1548482 0.83306295 0.42468175 4278821823
-1.1226134 0.83548236 0.42450419 4278821823
-1.1185791 0.83445531 0.42559299 4278821823
-1.1800499 0.84418935 0.42290112 4278821823
-1.175452 0.84674764 0.42519706 4278821823
-1.1649163 0.84455138 0.42609677 4278821823
-1.1554403 0.84407842 0.42321748 4278821823
-1.1253207 0.8453142 0.42480773 4278821823
-1.119548 0.84359342 0.42804888 4278821823
-1.1832643 0.85873055 0.42711121 4278821823
-1.1757905 0.85576999 0.42550188 4278821823
-1.1665473 0.85377467 0.42436361 4278821823
-1.1335099 0.85592163 0.42426908 4278821823
-1.1276602 0.85318303 0.42534402 4278821823
-1.1190541 0.85265887 0.42978126 4278821823
-1.1923409 0.86730713 0.42700219 4278821823
-1.1833296 0.86380088 0.42544639 4278821823
-1.1758596 0.86177039 0.42332551 4278821823
-1.140631 0.86945415 0.42429361 4278821823
-1.1358733 0.86521626 0.42387757 4278821823
-1.1288977 0.86351466 0.42885903 4278821823
-1.1968012 0.87250847 0.42605051 4278821823
-1.1819359 0.87180072 0.42404488 4278821823
-1.1410661 0.87399298 0.424182 4278821823
-1.1366627 0.87280202 0.42626721 4278821823
-1.1299878 0.87123692 0.42650339 4278821823
-0.65054548 0.41635907 0.43901816 4278821823
-0.64570916 0.41658726 0.43605489 4278821823
-0.63927615 0.41683435 0.43469954 4278821823
-0.64434826 0.42583743 0.43471146 4278821823
-0.63458228 0.42350447 0.43283325 4278821823
-0.65499473 0.43753722 0.4348582 4278821823
-0.64296502 0.43499255 0.43499389 4278821823
-0.6390754 0.43629965 0.43194628 4278821823
-0.65332484 0.44557855 0.43456173 4278821823
-0.64216024 0.44461951 0.43422207 4278821823
-0.63841027 0.44582847 0.43556306 4278821823
-0.65207666 0.45548663 0.43513146 4278821823
-0.64354736 0.45538309 0.43594879 4278821823
-0.63900357 0.45538214 0.43449911 4278821823
-0.65161365 0.46703005 0.43418789 4278821823
-0.64458185 0.46486303 0.43508089 4278821823
-0.63960171 0.46172559 0.43373474 4278821823
-0.66153699 0.47878113 0.43094119 4278821823
-0.65247738 0.47610003 0.43453288 4278821823
-0.6470862 0.47405395 0.43523097 4278821823
-0.66247737 0.48829564 0.4341282 4278821823
-0.65512562 0.48503032 0.43544003 4278821823
-0.64874846 0.48170432 0.43480867 4278821823
-0.68286997 0.49872327 0.43429902 4278821823
-0.67457026 0.49652475 0.43506035 4278821823
-0.66592258 0.49304217 0.43483013 4278821823
-0.65810144 0.49130493 0.43557701 4278821823
-0.94715995 0.5076859 0.43320641 4278821823
-0.74256784 0.50959432 0.4329145 4278821823
-0.73452061 0.50915307 0.43434727 4278821823
-0.72417116 0.50922924 0.43391722 4278821823
-0.71476763 0.50800723 0.43502617 4278821823
-0.70512646 0.50589693 0.43502066 4278821823
-0.69484681 0.50366253 0.43504626 4278821823
-0.68596935 0.50147957 0.43524343 4278821823
-0.67750716 0.50091177 0.43567571 4278821823
-1.1328397 0.51686263 0.43378323 4278821823
-1.1246932 0.51600206 0.43417206 4278821823
-1.1161605 0.51631629 0.43593663 4278821823
-1.1018748 0.51889956 0.43483901 4278821823
-1.0948445 0.51857424 0.43598795 4278821823
-1.0866998 0.51729918 0.43722963 4278821823
-1.0755619 0.51810807 0.43488732 4278821823
-1.0645245 0.51902705 0.43402889 4278821823
-1.0573845 0.51811838 0.43447936 4278821823
-1.0467601 0.51603776 0.43517819 4278821823
-1.0349523 0.5160622 0.43443647 4278821823
-1.0245126 0.51705557 0.43501374 4278821823
-1.0139009 0.51799184 0.43278822 4278821823
-1.004423 0.51859719 0.43334144 4278821823
-0.99384588 0.51837909 0.43399352 4278821823
-0.98377192 0.51676536 0.434293 4278821823
-0.97446746 0.51579946 0.43546608 4278821823
-0.96474648 0.51530784 0.4353008 4278821823
-0.95412743 0.5147714 0.43465585 4278821823
-0.94681239 0.51296639 0.43547198 4278821823
-0.83177781 0.51849705 0.43206397 4278821823
-0.82301837 0.51909631 0.43461025 4278821823
-0.81484681 0.51865047 0.43487141 4278821823
-0.80405426 0.51839596 0.43523714 4278821823
-0.79446161 0.51788461 0.43564126 4278821823
-0.78476924 0.5173561 0.43458709 4278821823
-0.77458203 0.51697576 0.43503118 4278821823
-0.76505935 0.51588315 0.43488497 4278821823
-0.75554931 0.51451886 0.43477088 4278821823
-0.74529076 0.51298088 0.43513894 4278821823
-0.7353586 0.51166213 0.43506232 4278821823
-0.72571981 0.51129436 0.43551102 4278821823
-0.71770889 0.51068205 0.43665105 4278821823
-0.70856696 0.51009697 0.43921107 4278821823
-1.1331092 0.52233893 0.4342446 4278821823
-1.1222813 0.52449185 0.43424201 4278821823
-1.1156752 0.52420628 0.43407136 4278821823
-1.1050051 0.52464157 0.43487501 4278821823
-1.0951599 0.52531481 0.43431973 4278821823
-1.0850972 0.52461922 0.43464351 4278821823
-1.0751555 0.52520996 0.43408951 4278821823
-1.0650017 0.52652782 0.43473494 4278821823
-1.0547169 0.52690434 0.43524075 4278821823
-1.0445794 0.5272522 0.43515635 4278821823
-1.035149 0.52682704 0.43496454 4278821823
-1.0248432 0.52742237 0.43517432 4278821823
-1.0155866 0.52755326 0.4342998 4278821823
-1.0048544 0.52690744 0.43488216 4278821823
-0.9944545 0.52713788 0.43576503 4278821823
-0.98534375 0.52615839 0.43534416 4278821823
-0.97519237 0.52639627 0.43482479 4278821823
-0.96548378 0.52741998 0.43489259 4278821823
-0.95476735 0.52791351 0.43495011 4278821823
-0.94484556 0.52747625 0.4349255 4278821823
-0.93511742 0.5269165 0.43492365 4278821823
-0.92479068 0.52663416 0.43515497 4278821823
-0.9151513 0.52609092 0.43507287 4278821823
-0.90522939 0.52545661 0.43509981 4278821823
-0.8948186 0.5251599 0.43496424 4278821823
-0.86479318 0.52409995 0.43520859 4278821823
-0.85486144 0.52399987 0.43495366 4278821823
-0.84506947 0.52325457 0.43521944 4278821823
-0.8346948 0.52282608 0.43505868 4278821823
-0.82513213 0.52258885 0.43499023 4278821823
-0.81566429 0.52199036 0.43542308 4278821823
-0.80506903 0.52138257 0.43551266 4278821823
-0.79579717 0.52146769 0.4349494 4278821823
-0.78631926 0.52125335 0.43465108 4278821823
-0.77667493 0.5203976 0.43569434 4278821823
-1.115253 0.53104895 0.43884578 4278821823
-1.0730433 0.5307532 0.43070802 4278821823
-1.0574231 0.53116786 0.43588993 4278821823
-1.0307226 0.53001416 0.43147767 4278821823
-1.0172223 0.5307532 0.43858325 4278821823
-1.0046852 0.53111303 0.43620515 4278821823
-0.99560308 0.53142041 0.43510866 4278821823
-0.98536909 0.53101683 0.4315185 4278821823
-0.9741469 0.53031421 0.43522546 4278821823
-0.96480083 0.53067714 0.43559018 4278821823
-0.95766419 0.53111732 0.43521738 4278821823
-0.9478699 0.53066576 0.43851036 4278821823
-0.93186373 0.53100044 0.43796137 4278821823
-0.92605174 0.5303632 0.43253076 4278821823
-1.1156173 0.55898607 0.43573263 4278821823
-1.1162189 0.56583452 0.4347457 4278821823
-1.1082022 0.5670467 0.43461087 4278821823
-1.0923235 0.56540376 0.43192002 4278821823
-1.085224 0.56755519 0.43442261 4278821823
-1.1168667 0.5735842 0.43258926 4278821823
-1.1097262 0.57605153 0.43671513 4278821823
-1.0910342 0.57081413 0.43772599 4278821823
-1.084154 0.57418382 0.43395001 4278821823
-1.0770071 0.57744479 0.43296123 4278821823
-1.110287 0.58731699 0.43578109 4278821823
-1.1097366 0.58249497 0.43372148 4278821823
-1.083297 0.58600897 0.43566033 4278821823
-1.0781589 0.58664989 0.43453574 4278821823
-1.1150271 0.59415919 0.43489423 4278821823
-1.1039686 0.59711534 0.43460119 4278821823
-1.0825068 0.5951075 0.43434054 4278821823
-1.0786136 0.59415007 0.43381599 4278821823
-1.1201304 0.60891461 0.43502772 4278821823
-1.1181252 0.60330749 0.43554005 4278821823
-1.1048082 0.6044476 0.43426502 4278821823
-1.0826601 0.60474503 0.43490821 4278821823
-1.0784383 0.60491353 0.43698922 4278821823
-1.1205506 0.61467111 0.43485558 4278821823
-1.1060773 0.6147697 0.43526787 4278821823
-1.0830439 0.61461014 0.43472263 4278821823
-1.078454 0.61665994 0.43546471 4278821823
-1.121224 0.62423843 0.43360704 4278821823
-1.1136 0.62827873 0.43761575 4278821823
-1.1072526 0.62503499 0.43479726 4278821823
-1.0819514 0.62521005 0.43565798 4278821823
-1.0786558 0.6260941 0.43522027 4278821823
-1.1219412 0.63473845 0.43136814 4278821823
-1.113904 0.63701349 0.43519947 4278821823
-1.1084542 0.63500124 0.43536222 4278821823
-1.0824506 0.63526642 0.43513972 4278821823
-1.0790639 0.63244617 0.43345228 4278821823
-1.1227553 0.64569193 0.43161812 4278821823
-1.1130018 0.64649898 0.43625745 4278821823
-1.1095744 0.64476812 0.43494686 4278821823
-1.0844332 0.64457035 0.43429494 4278821823
-1.1234114 0.65488625 0.43076572 4278821823
-1.1135761 0.65509468 0.43569008 4278821823
-1.090982 0.65245122 0.43899307 4278821823
-1.0844387 0.65529698 0.43415484 4278821823
-1.0793681 0.65205824 0.43121424 4278821823
-1.1243292 0.66606784 0.43442923 4278821823
-1.1142597 0.66398144 0.43524337 4278821823
-1.090513 0.66751206 0.43346819 4278821823
-1.0858862 0.66452491 0.43397042 4278821823
-1.123656 0.67528176 0.43569142 4278821823
-1.1141651 0.67467725 0.43471372 4278821823
-1.1085199 0.67878437 0.43991274 4278821823
-1.0909941 0.67387736 0.43454188 4278821823
-1.0864552 0.67501831 0.43509015 4278821823
-1.1331173 0.68974417 0.43525341 4278821823
-1.124934 0.68544519 0.43576068 4278821823
-1.1149473 0.68454862 0.43452984 4278821823
-1.0908111 0.68634802 0.43739906 4278821823
-1.0871686 0.68487549 0.43487954 4278821823
-1.1335393 0.69552624 0.43508053 4278821823
-1.1245513 0.69591081 0.43491274 4278821823
-1.115332 0.69407254 0.43458429 4278821823
-1.0915688 0.69601709 0.43509814 4278821823
-1.0887455 0.69359976 0.43460265 4278821823
-1.1341558 0.70384824 0.43519425 4278821823
-1.1259965 0.70626134 0.43390325 4278821823
-1.1006608 0.70787656 0.43934256 4278821823
-1.0947636 0.70493931 0.43493035 4278821823
-1.0889859 0.70003331 0.43339342 4278821823
-1.1325037 0.71731621 0.43335462 4278821823
-1.1266485 0.71453929 0.43525597 4278821823
-1.1014758 0.71505725 0.43698055 4278821823
-1.096333 0.71498483 0.43419087 4278821823
-1.1336559 0.72672123 0.43682346 4278821823
-1.1263834 0.7253173 0.43547955 4278821823
-1.1010361 0.72666377 0.43381128 4278821823
-1.0972863 0.72489315 0.43541503 4278821823
-1.1341248 0.73475313 0.43489501 4278821823
-1.1270123 0.73437792 0.43479633 4278821823
-1.1018858 0.73659021 0.4330416 4278821823
-1.0970244 0.73533696 0.43531805 4278821823
-1.1356835 0.74477261 0.43494236 4278821823
-1.1250753 0.74165684 0.43753341 4278821823
-1.1023492 0.74615085 0.43491197 4278821823
-1.0981144 0.74624747 0.43603685 4278821823
-1.136888 0.75492764 0.43523207 4278821823
-1.1015477 0.75514334 0.43509844 4278821823
-1.0989529 0.75448126 0.43494079 4278821823
-1.1460477 0.76737034 0.43338776 4278821823
-1.1381556 0.76463765 0.43490458 4278821823
-1.102517 0.76546031 0.43510771 4278821823
-1.0989053 0.7633751 0.43541569 4278821823
-1.1432993 0.77609348 0.4333975 4278821823
-1.1394893 0.77386165 0.43580249 4278821823
-1.104072 0.77493048 0.43481144 4278821823
-1.0997115 0.77175033 0.43319747 4278821823
-1.1430212 0.78564018 0.43460131 4278821823
-1.1398721 0.78312504 0.43558347 4278821823
-1.1111555 0.78678542 0.43502831 4278821823
-1.1071776 0.78397298 0.43532982 4278821823
-1.1561911 0.7979008 0.43735057 4278821823
-1.1436175 0.79487687 0.43504548 4278821823
-1.1122977 0.7946685 0.43435264 4278821823
-1.1080817 0.79264611 0.43637565 4278821823
-1.1532958 0.80749536 0.43744269 4278821823
-1.1449401 0.80556369 0.43418595 4278821823
-1.1126645 0.80488849 0.43462157 4278821823
-1.1092727 0.80273509 0.4371576 4278821823
-1.1611456 0.8189829 0.43137103 4278821823
-1.1543189 0.81536478 0.43469104 4278821823
-1.1456916 0.81310886 0.43316972 4278821823
-1.1219971 0.81929862 0.43180558 4278821823
-1.1145434 0.81470001 0.43486127 4278821823
-1.1626348 0.82667685 0.43415794 4278821823
-1.1556242 0.8245672 0.4353452 4278821823
-1.1490558 0.82131505 0.43346706 4278821823
-1.1220303 0.82671887 0.43301091 4278821823
-1.1166637 0.82541144 0.43588632 4278821823
-1.1628348 0.83508337 0.43408996 4278821823
-1.1561422 0.83313119 0.43662578 4278821823
-1.1217432 0.83569062 0.43415332 4278821823
-1.1179556 0.83533311 0.43440804 4278821823
-1.1804156 0.84908831 0.4387885 4278821823
-1.1745985 0.84750426 0.43522668 4278821823
-1.1647341 0.84474772 0.43480828 4278821823
-1.1558151 0.8433876 0.43790895 4278821823
-1.1223152 0.84701657 0.43393993 4278821823
-1.116345 0.84498119 0.43504182 4278821823
-1.1814412 0.85503858 0.43543372 4278821823
-1.1738415 0.85668862 0.43561536 4278821823
-1.1640164 0.85378855 0.43521899 4278821823
-1.1308783 0.85856104 0.4338102 4278821823
-1.1252856 0.85613471 0.43474567 4278821823
-1.1184464 0.85298502 0.4362798 4278821823
-1.1936126 0.86621374 0.43256065 4278821823
-1.1838391 0.86568302 0.43478853 4278821823
-1.1748947 0.86324388 0.4358207 4278821823
-1.1653153 0.86160207 0.43370795 4278821823
-1.1321814 0.86649835 0.43435726 4278821823
-1.1287498 0.86293411 0.43633413 4278821823
-1.2001711 0.87711287 0.43828952 4278821823
-1.1946071 0.87342089 0.43391204 4278821823
-1.1835948 0.87296814 0.43541655 4278821823
-1.1409323 0.87607825 0.43178815 4278821823
-1.1356704 0.87369382 0.43524078 4278821823
-1.2005395 0.88163674 0.43965304 4278821823
-0.65085208 0.41554743 0.44679523 4278821823
-0.64827013 0.41529882 0.4451592 4278821823
-0.65070403 0.42059004 0.44847804 4278821823
-0.64502871 0.42643192 0.44463682 4278821823
-0.65479261 0.43698981 0.44522631 4278821823
-0.64339948 0.43483225 0.44478741 4278821823
-0.63948274 0.43839905 0.44396114 4278821823
-0.65249252 0.44574159 0.44540009 4278821823
-0.64229399 0.44540167 0.44516808 4278821823
-0.63883322 0.44561836 0.445173 4278821823
-0.65205109 0.45585692 0.44525158 4278821823
-0.64350218 0.45566696 0.44484514 4278821823
-0.63952315 0.45450744 0.44329005 4278821823
-0.65173578 0.46681085 0.44477689 4278821823
-0.64389503 0.46501794 0.44512609 4278821823
-0.63958782 0.46327901 0.44330558 4278821823
-0.66055828 0.47805282 0.44640937 4278821823
-0.65244287 0.47716221 0.44524884 4278821823
-0.64626873 0.4747043 0.44482648 4278821823
-0.67121112 0.48952687 0.44158673 4278821823
-0.66215557 0.4884913 0.44469288 4278821823
-0.65532291 0.48552769 0.44497201 4278821823
-0.64869386 0.48245588 0.4442119 4278821823
-0.68284017 0.49875206 0.44433182 4278821823
-0.67409468 0.49678031 0.44496447 4278821823
-0.66511631 0.49336773 0.44542697 4278821823
-0.6583643 0.49119624 0.44516599 4278821823
-0.73247647 0.50921118 0.44401157 4278821823
-0.72285318 0.50909215 0.4443852 4278821823
-0.71515274 0.50795883 0.44451952 4278821823
-0.70479953 0.50672656 0.44507363 4278821823
-0.69494969 0.50426972 0.44487646 4278821823
-0.6860323 0.50218689 0.44514602 4278821823
-0.67750251 0.50099504 0.44433397 4278821823
-1.133404 0.51664615 0.44376561 4278821823
-1.1253481 0.51732594 0.44263196 4278821823
-1.1124353 0.51756573 0.44552138 4278821823
-1.1027188 0.51906025 0.44561392 4278821823
-1.0953535 0.51839548 0.44495824 4278821823
-1.084408 0.51778185 0.4452793 4278821823
-1.0760806 0.51774657 0.4443835 4278821823
-1.0653522 0.51952899 0.44704318 4278821823
-1.0562198 0.51826882 0.44481701 4278821823
-1.0464644 0.51580167 0.44512975 4278821823
-1.0355841 0.51644546 0.44437277 4278821823
-1.0251404 0.51743609 0.44488278 4278821823
-0.98483592 0.51810384 0.4442167 4278821823
-0.97426814 0.51828295 0.4442367 4278821823
-0.96515322 0.51759201 0.44497001 4278821823
-0.95530045 0.51847488 0.44716281 4278821823
-0.9457041 0.51507324 0.44512349 4278821823
-0.84150469 0.51973671 0.44388723 4278821823
-0.82350802 0.51947767 0.44469193 4278821823
-0.81365442 0.51945537 0.44400162 4278821823
-0.80549961 0.51887912 0.44436359 4278821823
-0.79423463 0.51828659 0.44386134 4278821823
-0.78466648 0.51822311 0.44461748 4278821823
-0.77497685 0.51781166 0.44463769 4278821823
-0.7652756 0.5168153 0.44462988 4278821823
-0.7548179 0.51538604 0.44514588 4278821823
-0.74511403 0.51361454 0.44501117 4278821823
-0.73553342 0.51250809 0.4450731 4278821823
-0.72546679 0.51163399 0.44517401 4278821823
-0.71791798 0.5109331 0.44527659 4278821823
-0.70889664 0.51084298 0.4480803 4278821823
-1.1327881 0.5229938 0.44089288 4278821823
-1.124452 0.52327907 0.44528365 4278821823
-1.1147631 0.52444828 0.44622296 4278821823
-1.10518 0.5246889 0.44451368 4278821823
-1.0941793 0.52529931 0.44468457 4278821823
-1.0858544 0.52544904 0.44544452 4278821823
-1.0741796 0.52704388 0.4441843 4278821823
-1.0648361 0.52705801 0.44419232 4278821823
-1.0548966 0.52669549 0.44450888 4278821823
