# .PCD v0.7 - Point Cloud Data file format
VERSION 0.7
FIELDS x y z rgba
SIZE 4 4 4 4
TYPE F F F U
COUNT 1 1 1 1
WIDTH 1095
HEIGHT 1
VIEWPOINT 0 0 0 1 0 0 0
POINTS 1095
DATA ascii
-1.1972132 0.87129158 0.35650086 4293617394
-1.1116393 0.63639367 0.36552081 4293617394
-1.1119728 0.64462554 0.36525747 4293617394
-1.1128407 0.65582591 0.36494875 4293617394
-1.1200233 0.66777307 0.36812037 4293617394
-1.1145523 0.6651262 0.36446881 4293617394
-1.121195 0.67557824 0.36546552 4293617394
-1.1147205 0.67122197 0.36152282 4293617394
-1.1258663 0.68518287 0.36514875 4293617394
-1.1250842 0.69501263 0.36556509 4293617394
-1.1347404 0.70942831 0.36721748 4293617394
-1.1244938 0.70509958 0.36531556 4293617394
-1.1348531 0.71220893 0.36712855 4293617394
-1.1266718 0.71485579 0.36431748 4293617394
-1.135571 0.7289356 0.3679857 4293617394
-1.1282827 0.7246266 0.36447144 4293617394
-1.1358258 0.73719192 0.36493707 4293617394
-1.1287315 0.73569793 0.36411729 4293617394
-1.1361496 0.7449863 0.36496612 4293617394
-1.1366029 0.75557834 0.36546263 4293617394
-1.1369945 0.76504111 0.36543834 4293617394
-1.1373889 0.77477336 0.36512703 4293617394
-1.1449158 0.78494638 0.36848581 4293617394
-1.1377596 0.78472334 0.36366957 4293617394
-1.1452284 0.7946375 0.36537838 4293617394
-1.1380087 0.79006696 0.36463773 4293617394
-1.1516706 0.80699229 0.36267769 4293617394
-1.1456211 0.80407619 0.36542609 4293617394
-1.1520743 0.81582862 0.36398643 4293617394
-1.1461046 0.81427789 0.36754745 4293617394
-1.1555656 0.82526934 0.36515391 4293617394
-1.1658155 0.836281 0.36551619 4293617394
-1.1598004 0.83225691 0.36525148 4293617394
-1.1673105 0.84440303 0.36517641 4293617394
-1.1817913 0.85854489 0.36087903 4293617394
-1.1748939 0.85791671 0.36567503 4293617394
-1.1677122 0.85430849 0.36485949 4293617394
-1.1972691 0.86858571 0.36236218 4293617394
-1.1834044 0.86476064 0.36370811 4293617394
-1.1751549 0.86254424 0.36808923 4293617394
-1.1824255 0.87014413 0.36622763 4293617394
-1.1119269 0.63668948 0.37512863 4293617394
-1.1122605 0.6449213 0.3748652 4293617394
-1.1126876 0.65528119 0.37478364 4293617394
-1.1130835 0.66447818 0.37529647 4293617394
-1.1217413 0.67706341 0.37270674 4293617394
-1.1135315 0.67449641 0.3764379 4293617394
-1.1229429 0.68464285 0.37572187 4293617394
-1.1264628 0.69385689 0.37541252 4293617394
-1.1348745 0.70756763 0.3745864 4293617394
-1.1277279 0.70383102 0.37518403 4293617394
-1.1352296 0.71526074 0.37584859 4293617394
-1.1282096 0.71792012 0.37161517 4293617394
-1.1356519 0.7253291 0.37602627 4293617394
-1.12849 0.72483963 0.3713938 4293617394
-1.1360046 0.73471093 0.37476227 4293617394
-1.136399 0.74444318 0.37445092 4293617394
-1.1368656 0.75527453 0.37506822 4293617394
-1.1372861 0.76534081 0.37517461 4293617394
-1.1447681 0.77709794 0.37468129 4293617394
-1.1376892 0.77463818 0.37580532 4293617394
-1.145125 0.78516144 0.37547234 4293617394
-1.1455213 0.79493862 0.37515959 4293617394
-1.1520165 0.80824375 0.37293509 4293617394
-1.1459175 0.80471581 0.37484685 4293617394
-1.1523845 0.81534147 0.37551644 4293617394
-1.1462014 0.81303889 0.37271559 4293617394
-1.1527824 0.82515699 0.37520242 4293617394
-1.1602496 0.83628654 0.37509766 4293617394
-1.1547434 0.83088648 0.37420031 4293617394
-1.1658804 0.84525412 0.37518042 4293617394
-1.1751568 0.85655224 0.37682182 4293617394
-1.1679718 0.85430443 0.37392879 4293617394
-1.1825311 0.86587369 0.37608764 4293617394
-1.1753817 0.86347783 0.37464806 4293617394
-1.1861972 0.8708272 0.37456468 4293617394
-1.1122146 0.63698512 0.38473639 4293617394
-1.1125482 0.64521706 0.38447306 4293617394
-1.1129385 0.65458292 0.3845481 4293617394
-1.1133842 0.66448385 0.38578013 4293617394
-1.1063735 0.66741741 0.38147545 4293617394
-1.1138127 0.67544276 0.38487995 4293617394
-1.1212304 0.68486565 0.38551772 4293617394
-1.1140908 0.68230265 0.38466048 4293617394
-1.1258045 0.69414872 0.38496101 4293617394
-1.1351789 0.70810252 0.38443112 4293617394
-1.1280217 0.70446461 0.38451812 4293617394
-1.1355309 0.71645874 0.38462785 4293617394
-1.1284351 0.7141732 0.38490045 4293617394
-1.1359015 0.72527838 0.38480982 4293617394
-1.1363239 0.73530585 0.38504595 4293617394
-1.1367322 0.74478573 0.38557804 4293617394
-1.1371343 0.7549358 0.38493201 4293617394
-1.1375407 0.76453692 0.38522464 4293617394
-1.1451348 0.7784788 0.38547695 4293617394
-1.1379155 0.77398247 0.38464394 4293617394
-1.1454178 0.78546238 0.38525355 4293617394
-1.1458141 0.79523969 0.38494077 4293617394
-1.1462103 0.80501682 0.38462797 4293617394
-1.1528344 0.81849128 0.38664925 4293617394
-1.1466151 0.81469977 0.38474852 4293617394
-1.1602372 0.82749891 0.38736916 4293617394
-1.153037 0.8248812 0.38447896 4293617394
-1.160509 0.83520311 0.38571203 4293617394
-1.1533335 0.83378643 0.38194737 4293617394
-1.1660044 0.84418261 0.38513044 4293617394
-1.1753737 0.85593301 0.38527906 4293617394
-1.1681908 0.85208839 0.38476932 4293617394
-1.195344 0.86916667 0.3875111 4293617394
-1.1854841 0.86598247 0.38490775 4293617394
-1.1756153 0.86229092 0.3845149 4293617394
-1.1980767 0.87217933 0.38534626 4293617394
-1.1899271 0.87146717 0.38150537 4293617394
-1.1125435 0.63732308 0.3957167 4293617394
-1.112877 0.64555496 0.39545333 4293617394
-1.1132662 0.65515882 0.3951461 4293617394
-1.1208669 0.6677596 0.39756763 4293617394
-1.1136361 0.66447985 0.39457321 4293617394
-1.1211511 0.67589754 0.39571783 4293617394
-1.1139674 0.67472529 0.39131442 4293617394
-1.1215194 0.68516266 0.39517048 4293617394
-1.1142551 0.68247163 0.39015067 4293617394
-1.126045 0.69483453 0.39497715 4293617394
-1.1283534 0.70480555 0.39559388 4293617394
-1.128746 0.71449292 0.39528397 4293617394
-1.1361933 0.72557801 0.39454606 4293617394
-1.1290264 0.72141236 0.39506257 4293617394
-1.1365887 0.7350691 0.39462215 4293617394
-1.1370238 0.7450853 0.39531425 4293617394
-1.1374182 0.75481755 0.3950029 4293617394
-1.145115 0.76908863 0.39836556 4293617394
-1.1378126 0.76454979 0.39469156 4293617394
-1.1453279 0.7753309 0.39676717 4293617394
-1.1381655 0.7742393 0.39298928 4293617394
-1.145654 0.78436685 0.39507943 4293617394
-1.146107 0.79554063 0.39472193 4293617394
-1.1465032 0.80531782 0.39440918 4293617394
-1.1529604 0.81535721 0.39557594 4293617394
-1.1467675 0.81183606 0.39420065 4293617394
-1.1604358 0.82712448 0.39483732 4293617394
-1.1532321 0.82259572 0.39459208 4293617394
-1.1660149 0.83455551 0.39533898 4293617394
-1.1682006 0.84531802 0.3949053 4293617394
-1.1756077 0.85553664 0.39401749 4293617394
-1.1686281 0.85486275 0.39601704 4293617394
-1.1935853 0.86800706 0.39436695 4293617394
-1.183992 0.86419171 0.39455578 4293617394
-1.1759033 0.86167884 0.39544782 4293617394
-1.1943247 0.87215495 0.39420244 4293617394
-1.112831 0.63761884 0.40532449 4293617394
-1.113142 0.64546877 0.4048236 4293617394
-1.1205089 0.6524207 0.40726048 4293617394
-1.1135293 0.65484482 0.40477341 4293617394
-1.1213387 0.66462088 0.40547103 4293617394
-1.1137763 0.66094249 0.40457833 4293617394
-1.1213979 0.67552692 0.40486497 4293617394
-1.1249875 0.68449503 0.40534648 4293617394
-1.1271236 0.6947571 0.40420318 4293617394
-1.1357105 0.70776069 0.40346962 4293617394
-1.1286435 0.70510375 0.40528512 4293617394
-1.129078 0.71562999 0.40522557 4293617394
-1.1364691 0.72571379 0.40397814 4293617394
-1.1294172 0.72340536 0.4058083 4293617394
-1.1368841 0.73454893 0.40567559 4293617394
-1.1373153 0.74538499 0.40505046 4293617394
-1.1377097 0.75511724 0.40473914 4293617394
-1.1452676 0.7679069 0.40539682 4293617394
-1.1380556 0.76387715 0.40413761 4293617394
-1.1455507 0.7748906 0.40517342 4293617394
-1.1459469 0.78466779 0.40486062 4293617394
-1.1523999 0.79466212 0.40594697 4293617394
-1.1463014 0.79440194 0.40315053 4293617394
-1.1528546 0.80600423 0.40541127 4293617394
-1.1466877 0.80175972 0.40599221 4293617394
-1.1532098 0.8148458 0.40502045 4293617394
-1.1611799 0.8264513 0.40430698 4293617394
-1.1534799 0.82165051 0.4046022 4293617394
-1.1652745 0.83519107 0.40526986 4293617394
-1.1679503 0.84525406 0.40506786 4293617394
-1.1759709 0.85629922 0.40558434 4293617394
-1.1687843 0.85269839 0.40458858 4293617394
-1.1903694 0.86917269 0.40025121 4293617394
-1.18338 0.86682463 0.40432867 4293617394
-1.1763053 0.86421108 0.40580574 4293617394
-1.1904857 0.87204134 0.40015945 4293617394
-1.183623 0.87137514 0.40622583 4293617394
-1.1131186 0.63791454 0.41493228 4293617394
-1.1133968 0.64477444 0.41471282 4293617394
-1.1137861 0.65437829 0.41440555 4293617394
-1.1215097 0.66930103 0.41776302 4293617394
-1.1142465 0.66506678 0.4150148 4293617394
-1.1216429 0.67509925 0.41402811 4293617394
-1.1146538 0.6743353 0.41582796 4293617394
-1.1271105 0.68394887 0.41548443 4293617394
-1.1356856 0.69867474 0.41573372 4293617394
-1.1285169 0.69512165 0.41530529 4293617394
-1.1359001 0.70475781 0.41442528 4293617394
-1.1289313 0.70593011 0.41412801 4293617394
-1.1361147 0.71084106 0.41311687 4293617394
-1.1293484 0.71549088 0.41485161 4293617394
-1.1367909 0.72752488 0.41258314 4293617394
-1.1297189 0.72477674 0.41435656 4293617394
-1.1360806 0.73445511 0.41540235 4293617394
-1.1299847 0.73035491 0.41556397 4293617394
-1.1376067 0.74568462 0.41478673 4293617394
-1.1380291 0.75571215 0.41502285 4293617394
-1.1454867 0.76712823 0.41416353 4293617394
-1.1383923 0.76381326 0.41597873 4293617394
-1.1458434 0.77519172 0.41495457 4293617394
-1.138844 0.77227199 0.41950518 4293617394
-1.1523401 0.78841913 0.41288686 4293617394
-1.1462312 0.78469241 0.4147439 4293617394
-1.1528219 0.79832113 0.41537848 4293617394
-1.1466502 0.79500389 0.41444787 4293617394
-1.1531408 0.80641341 0.41480753 4293617394
-1.1470116 0.80262804 0.41603503 4293617394
-1.1535039 0.81514812 0.41484016 4293617394
-1.1608974 0.82682753 0.41137132 4293617394
-1.1538959 0.82442015 0.41510525 4293617394
-1.1613905 0.83633435 0.41482884 4293617394
-1.1543268 0.83346361 0.41706264 4293617394
-1.1656551 0.84405428 0.41490039 4293617394
-1.1762897 0.85740548 0.41510659 4293617394
-1.169075 0.85245484 0.4150826 4293617394
-1.1907697 0.8684845 0.4152112 4293617394
-1.183571 0.86402345 0.41504049 4293617394
-1.1764143 0.86220407 0.41251284 4293617394
-1.1988668 0.87022817 0.41572613 4293617394
-1.1134378 0.63843042 0.42531809 4293617394
-1.1137255 0.64511245 0.42569315 4293617394
-1.1141148 0.65471625 0.42538589 4293617394
-1.1145597 0.66569215 0.42503476 4293617394
-1.1219274 0.67765629 0.42025638 4293617394
-1.1149489 0.67529589 0.42472756 4293617394
-1.1237053 0.68579507 0.42393386 4293617394
-1.1153442 0.68359113 0.426523 4293617394
-1.1265965 0.69454342 0.42535192 4293617394
-1.1291678 0.70431644 0.42471194 4293617394
-1.129661 0.7156986 0.42545646 4293617394
-1.1301237 0.72618747 0.4264375 4293617394
-1.1299043 0.72297788 0.42342204 4293617394
-1.1304432 0.73480487 0.42512244 4293617394
-1.1356316 0.74404401 0.4246594 4293617394
-1.1382334 0.75405675 0.42454317 4293617394
-1.1459517 0.76994872 0.42631182 4293617394
-1.1387287 0.76549166 0.42529115 4293617394
-1.1461363 0.77549279 0.42473575 4293617394
-1.1389272 0.77235758 0.42228696 4293617394
-1.1465727 0.78569353 0.42520872 4293617394
-1.1469707 0.79509014 0.42550755 4293617394
-1.1534865 0.80975497 0.4220337 4293617394
-1.147367 0.80486733 0.42519474 4293617394
-1.1609768 0.81880945 0.42573407 4293617394
-1.1538038 0.81599396 0.42408085 4293617394
-1.1477904 0.81333381 0.42772126 4293617394
-1.1611845 0.82365143 0.42598221 4293617394
-1.1541685 0.82658178 0.42149541 4293617394
-1.1616476 0.83515853 0.42549318 4293617394
-1.15448 0.83227724 0.42412159 4293617394
-1.1655191 0.84449482 0.42480108 4293617394
-1.1766247 0.85833347 0.42544803 4293617394
-1.1694061 0.85360879 0.42496505 4293617394
-1.1920927 0.86591762 0.42515039 4293617394
-1.1837262 0.86144608 0.42417908 4293617394
-1.1991752 0.87109786 0.42522663 4293617394
-1.1136755 0.63804859 0.4341625 4293617394
-1.1139991 0.64486778 0.43559304 4293617394
-1.1144024 0.65501201 0.43499371 4293617394
-1.1147916 0.66461581 0.43468645 4293617394
-1.1223111 0.67540878 0.43689215 4293617394
-1.115176 0.67409492 0.43438318 4293617394
-1.1085199 0.67878437 0.43991274 4293617394
-1.1240921 0.6856215 0.43588939 4293617394
-1.1155702 0.68382353 0.43407202 4293617394
-1.1262568 0.69436538 0.43427768 4293617394
-1.1268193 0.70430982 0.43448406 4293617394
-1.1300513 0.71892929 0.43440723 4293617394
-1.1271392 0.71392936 0.43531179 4293617394
-1.1302993 0.72537327 0.43373916 4293617394
-1.1244049 0.72511607 0.43806258 4293617394
-1.130692 0.73506063 0.43342924 4293617394
-1.124796 0.73476481 0.43775389 4293617394
-1.133478 0.74506474 0.4346582 4293617394
-1.1250753 0.74165684 0.43753341 4293617394
-1.1350646 0.75459439 0.43547437 4293617394
-1.1460477 0.76737034 0.43338776 4293617394
-1.137112 0.76472473 0.43520164 4293617394
-1.146289 0.77431107 0.43176702 4293617394
-1.1394417 0.77421892 0.43754232 4293617394
-1.145054 0.78580427 0.43319207 4293617394
-1.1398362 0.7839511 0.43723094 4293617394
-1.1425846 0.79515082 0.43541476 4293617394
-1.1429797 0.80489808 0.43510291 4293617394
-1.1611456 0.8189829 0.43137103 4293617394
-1.1540079 0.8156662 0.43167397 4293617394
-1.1449506 0.81446654 0.43568981 4293617394
-1.1614658 0.82538688 0.43328208 4293617394
-1.1545507 0.82526433 0.43672839 4293617394
-1.1483245 0.82057548 0.4358817 4293617394
-1.1618499 0.83436364 0.43370026 4293617394
-1.1549637 0.8358463 0.43584278 4293617394
-1.163572 0.84507352 0.43383482 4293617394
-1.1552978 0.84252471 0.43783575 4293617394
-1.170031 0.85940444 0.4383834 4293617394
-1.1637057 0.85404366 0.43505773 4293617394
-1.1842391 0.86692572 0.43414935 4293617394
-1.1751715 0.86394405 0.4365001 4293617394
-1.1653153 0.86160207 0.43370795 4293617394
-1.1914815 0.87375224 0.4324224 4293617394
-1.184579 0.87372643 0.43617877 4293617394
-1.1138439 0.63734519 0.44105446 4293617394
-1.1141219 0.64420509 0.440835 4293617394
-1.1072998 0.6448136 0.4464694 4293617394
-1.1145111 0.65380901 0.44052777 4293617394
-1.1077427 0.65573806 0.4461199 4293617394
-1.1080891 0.66525489 0.44444796 4293617394
-1.1155944 0.67858911 0.4424828 4293617394
-1.1084737 0.6745491 0.44442406 4293617394
-1.1230057 0.68669057 0.44481313 4293617394
-1.1158506 0.68345433 0.44438797 4293617394
-1.1088905 0.68309122 0.4466123 4293617394
-1.1233686 0.69525373 0.44509131 4293617394
-1.1237733 0.70465225 0.44561887 4293617394
-1.1242203 0.71567941 0.44526607 4293617394
-1.1246114 0.72532827 0.44495738 4293617394
-1.1312114 0.73758388 0.44789973 4293617394
-1.1249688 0.73456514 0.44407031 4293617394
-1.1314174 0.74484879 0.44458067 4293617394
-1.1251991 0.74178416 0.4416703 4293617394
-1.1318502 0.75481874 0.44526961 4293617394
-1.1351742 0.76482087 0.44488797 4293617394
-1.1396757 0.77476698 0.44491446 4293617394
-1.1401951 0.78636992 0.44625679 4293617394
-1.1399137 0.78225428 0.44239017 4293617394
-1.1405368 0.79533052 0.44522047 4293617394
-1.1438917 0.80517048 0.44507101 4293617394
-1.1546257 0.8189888 0.44841808 4293617394
-1.147259 0.81516832 0.44414839 4293617394
-1.1547689 0.82451141 0.44543299 4293617394
-1.1485337 0.82079053 0.44286826 4293617394
-1.1621658 0.83218133 0.44787633 4293617394
-1.1551501 0.83430988 0.44455785 4293617394
-1.1626523 0.84618121 0.44460717 4293617394
-1.1555077 0.8427406 0.44484985 4293617394
-1.1702119 0.85842806 0.44610721 4293617394
-1.1629765 0.85400087 0.44461355 4293617394
-1.1847477 0.86979437 0.44774389 4293617394
-1.175721 0.86515349 0.44519016 4293617394
-1.191954 0.87423807 0.44820663 4293617394
-1.1848255 0.8750062 0.44292992 4293617394
-1.177654 0.87165225 0.44210377 4293617394
-1.1075706 0.64539397 0.45507637 4293617394
-1.1079737 0.65466684 0.45572639 4293617394
-1.108361 0.66422576 0.45542058 4293617394
-1.115923 0.678927 0.45346311 4293617394
-1.1088037 0.67515028 0.45507109 4293617394
-1.1256616 0.68651044 0.45389456 4293617394
-1.1161789 0.68415695 0.45482233 4293617394
-1.1092587 0.68346977 0.45890734 4293617394
-1.1236311 0.69501913 0.45458537 4293617394
-1.1240206 0.70411384 0.45502225 4293617394
-1.1243709 0.7145133 0.45220494 4293617394
-1.1174921 0.71472526 0.45643952 4293617394
-1.1311991 0.72895068 0.45995548 4293617394
-1.1248698 0.72506553 0.45435205 4293617394
-1.1177702 0.72158509 0.45622009 4293617394
-1.1313831 0.7364344 0.45555863 4293617394
-1.1251796 0.7325173 0.45438966 4293617394
-1.1317402 0.74501365 0.45560393 4293617394
-1.1333772 0.75506592 0.45502746 4293617394
-1.1352404 0.76489067 0.45493391 4293617394
-1.1401048 0.77712113 0.45647696 4293617394
-1.1372721 0.77271104 0.45294657 4293617394
-1.1403918 0.78505522 0.45501652 4293617394
-1.142967 0.79490161 0.45538142 4293617394
-1.1545069 0.80811626 0.4599995 4293617394
-1.1476182 0.80502534 0.45410478 4293617394
-1.1546651 0.81499797 0.45556679 4293617394
-1.1484991 0.81004667 0.45719889 4293617394
-1.1550629 0.82481366 0.45525268 4293617394
-1.1625365 0.83661234 0.45440295 4293617394
-1.1553928 0.8326183 0.45547116 4293617394
-1.1628906 0.84507626 0.45451701 4293617394
-1.1704538 0.85821182 0.45485941 4293617394
-1.1632342 0.85328382 0.45463908 4293617394
-1.1919717 0.8680706 0.45774016 4293617394
-1.1849036 0.8685863 0.45493209 4293617394
-1.1754035 0.86468649 0.45516393 4293617394
-1.1920601 0.87228531 0.45473266 4293617394
-1.1849614 0.87001425 0.45488641 4293617394
-1.1078287 0.64509547 0.46451089 4293617394
-1.1082598 0.65496117 0.46528924 4293617394
-1.1086473 0.66452008 0.46498337 4293617394
-1.1163341 0.67934948 0.46718851 4293617394
-1.10909 0.6754446 0.46463391 4293617394
-1.1236252 0.68732733 0.46549758 4293617394
-1.1165154 0.68479514 0.4656404 4293617394
-1.1093404 0.68355381 0.46163958 4293617394
-1.1239239 0.69450343 0.46554404 4293617394
-1.1243141 0.70432752 0.46495375 4293617394
-1.1175163 0.70949078 0.46485037 4293617394
-1.1247303 0.71752471 0.46039057 4293617394
-1.117761 0.71552742 0.46465722 4293617394
-1.1251607 0.72618628 0.46287414 4293617394
-1.1181438 0.72381002 0.46604094 4293617394
-1.1316453 0.73604059 0.46527195 4293617394
-1.1255101 0.73285693 0.46542132 4293617394
-1.1319818 0.74434417 0.46500638 4293617394
-1.1324307 0.75541538 0.46465215 4293617394
-1.1400524 0.76729649 0.46885753 4293617394
-1.1349925 0.76497108 0.46496901 4293617394
-1.1403013 0.77546591 0.46572733 4293617394
-1.1346917 0.7762354 0.4645268 4293617394
-1.140669 0.78480726 0.46504876 4293617394
-1.1425562 0.7951237 0.46448651 4293617394
-1.1479424 0.80443978 0.46469674 4293617394
-1.1549319 0.81661612 0.46253598 4293617394
-1.1489123 0.81412184 0.46571496 4293617394
-1.1553867 0.82783407 0.4621771 4293617394
-1.1493651 0.82529581 0.46535742 4293617394
-1.1629006 0.83833647 0.46460697 4293617394
-1.1556979 0.83352929 0.46480334 4293617394
-1.1632142 0.84567893 0.46493635 4293617394
-1.1706779 0.85532308 0.46685511 4293617394
-1.1634998 0.85312748 0.4641338 4293617394
-1.1921865 0.86829144 0.4649148 4293617394
-1.1851138 0.86626107 0.46562871 4293617394
-1.173622 0.86269295 0.4648599 4293617394
-1.1923609 0.87259448 0.46477717 4293617394
-1.1148713 0.63840133 0.47536796 4293617394
-1.115165 0.64497387 0.47610888 4293617394
-1.1081468 0.6483016 0.47097212 4293617394
-1.1155601 0.65512604 0.47520769 4293617394
-1.1083682 0.65376377 0.47079739 4293617394
-1.1157023 0.66116905 0.47143388 4293617394
-1.1090455 0.66681957 0.47554567 4293617394
-1.116487 0.6775344 0.47514647 4293617394
-1.1092998 0.67411357 0.47387573 4293617394
-1.1238462 0.6856674 0.47560734 4293617394
-1.11672 0.68342763 0.47475186 4293617394
-1.1241934 0.69451636 0.4749299 4293617394
-1.124666 0.70587474 0.4749912 4293617394
-1.125114 0.71527731 0.47702631 4293617394
-1.1179998 0.71656191 0.4714936 4293617394
-1.1255052 0.72523105 0.47628319 4293617394
-1.1183336 0.72479379 0.47123027 4293617394
-1.1319355 0.73633897 0.47496328 4293617394
-1.1257989 0.733154 0.47507408 4293617394
-1.132272 0.74464244 0.47469759 4293617394
-1.1335837 0.75538689 0.47435501 4293617394
-1.1401776 0.76535249 0.47603574 4293617394
-1.135326 0.76268077 0.47365299 4293617394
-1.1405662 0.77537471 0.47509634 4293617394
-1.1409606 0.78510696 0.47478497 4293617394
-1.141395 0.79526091 0.4752557 4293617394
-1.143394 0.80448377 0.47523215 4293617394
-1.1450733 0.8144483 0.47515202 4293617394
-1.1557918 0.82690674 0.47765294 4293617394
-1.1483999 0.82356173 0.47494695 4293617394
-1.1631019 0.83599371 0.47502649 4293617394
-1.1559179 0.83274758 0.47360456 4293617394
-1.1497519 0.83007419 0.47194374 4293617394
-1.1706667 0.84853089 0.47628325 4293617394
-1.1634208 0.84395975 0.47462699 4293617394
-1.1709036 0.854877 0.47537169 4293617394
-1.1924443 0.86855644 0.47352439 4293617394
-1.1854445 0.86777401 0.47497687 4293617394
-1.1730366 0.86426884 0.47507349 4293617394
-1.1926563 0.87317276 0.47423849 4293617394
-1.1857038 0.87214565 0.47769684 4293617394
-1.115159 0.63869709 0.48497579 4293617394
-1.1154369 0.64555699 0.48475626 4293617394
-1.1157547 0.65456134 0.48281956 4293617394
-1.1090107 0.65704155 0.48846954 4293617394
-1.1159666 0.66056424 0.48152843 4293617394
-1.1092942 0.66555899 0.48604819 4293617394
-1.1167375 0.67742676 0.48404205 4293617394
-1.1096425 0.67418027 0.48573333 4293617394
-1.1241376 0.6867218 0.48424989 4293617394
-1.1170597 0.68403995 0.48572341 4293617394
-1.124441 0.69446599 0.48363811 4293617394
-1.1177144 0.69786108 0.48857862 4293617394
-1.1248546 0.70497113 0.48287731 4293617394
-1.1179925 0.70472097 0.48835912 4293617394
-1.1253287 0.7145372 0.48558286 4293617394
-1.118215 0.71020889 0.48818359 4293617394
-1.1319306 0.72837645 0.48630464 4293617394
-1.1257111 0.72434515 0.48474208 4293617394
-1.1321695 0.73525333 0.48469883 4293617394
-1.1259496 0.73198783 0.48201299 4293617394
-1.1342535 0.74540013 0.48519605 4293617394
-1.140076 0.75688362 0.48473758 4293617394
-1.1360908 0.75382543 0.48596498 4293617394
-1.1404068 0.76455188 0.48518839 4293617394
-1.133345 0.76033407 0.48943979 4293617394
-1.1408577 0.77567446 0.48483258 4293617394
-1.1412522 0.78540665 0.48452118 4293617394
-1.1431295 0.79424113 0.48484725 4293617394
-1.1420827 0.80491394 0.48528942 4293617394
-1.1430373 0.81500983 0.48518527 4293617394
-1.1631759 0.82916981 0.48747024 4293617394
-1.1560018 0.82712263 0.48466703 4293617394
-1.1480633 0.82299685 0.48439842 4293617394
-1.1633199 0.83471775 0.48447153 4293617394
-1.1563774 0.83489972 0.48652452 4293617394
-1.1708711 0.84806299 0.48409203 4293617394
-1.1637331 0.84391743 0.48558784 4293617394
-1.156795 0.84272003 0.48978484 4293617394
-1.1711992 0.85542738 0.48488703 4293617394
-1.1642308 0.85320389 0.48952264 4293617394
-1.1856585 0.86799383 0.48211941 4293617394
-1.1733336 0.86457425 0.48499438 4293617394
-1.1929345 0.87455875 0.4819504 4293617394
-1.1859695 0.87323987 0.48538336 4293617394
-1.1789014 0.87020993 0.48770142 4293617394
-1.1154467 0.63899273 0.49458358 4293617394
-1.1156768 0.64489305 0.49407768 4293617394
-1.1161816 0.65421128 0.49821836 4293617394
-1.1091189 0.65584415 0.4939777 4293617394
-1.1165384 0.66457069 0.49568874 4293617394
-1.1094373 0.66402358 0.49326023 4293617394
-1.1169729 0.67512256 0.49558666 4293617394
-1.1098528 0.6749199 0.49199998 4293617394
-1.1245748 0.68830347 0.49721372 4293617394
-1.1173621 0.68472642 0.49527949 4293617394
-1.1248285 0.69486433 0.49657914 4293617394
-1.1176956 0.69389725 0.49365145 4293617394
-1.1252527 0.70447463 0.49748516 4293617394
-1.1181231 0.70551264 0.49176854 4293617394
-1.125595 0.7144506 0.49499691 4293617394
-1.1183382 0.71033561 0.4923012 4293617394
-1.1260419 0.72547776 0.49464419 4293617394
-1.1324832 0.73645997 0.49389908 4293617394
-1.1263868 0.7335695 0.49497682 4293617394
-1.1328682 0.7449491 0.49504888 4293617394
-1.1332865 0.75496888 0.49515474 4293617394
-1.1406984 0.76485151 0.49492458 4293617394
-1.1335108 0.76050448 0.49497762 4293617394
-1.1410928 0.77458376 0.49461323 4293617394
-1.1443288 0.78456432 0.49526253 4293617394
-1.1464363 0.79450542 0.49503127 4293617394
-1.1445291 0.80491924 0.49539071 4293617394
-1.1500939 0.81971741 0.49885017 4293617394
-1.1445105 0.81504297 0.49421465 4293617394
-1.1550159 0.82530302 0.49481851 4293617394
-1.1453524 0.82201594 0.49312022 4293617394
-1.1637145 0.83647335 0.49570036 4293617394
-1.1565658 0.83388388 0.49456102 4293617394
-1.1713099 0.84987026 0.49678773 4293617394
-1.1640804 0.84531748 0.49567387 4293617394
-1.1568593 0.8409943 0.49452075 4293617394
-1.171522 0.85585165 0.49553359 4293617394
-1.1643152 0.85329056 0.4923411 4293617394
-1.1736306 0.86487955 0.49491522 4293617394
-1.1933213 0.87495625 0.49486476 4293617394
-1.1862603 0.87374425 0.49480468 4293617394
-1.1791142 0.8704288 0.49481186 4293617394
-1.1157753 0.63933069 0.50556391 4293617394
-1.1159978 0.64481866 0.50538832 4293617394
-1.1163871 0.65442252 0.50508106 4293617394
-1.1237876 0.66107506 0.50912738 4293617394
-1.1168274 0.66548139 0.50445253 4293617394
-1.1172212 0.67500216 0.50442272 4293617394
-1.1247593 0.6865117 0.50624311 4293617394
-1.1175871 0.68370539 0.50460219 4293617394
-1.1251017 0.69545007 0.50526708 4293617394
-1.1178474 0.69142371 0.50252348 4293617394
-1.1315882 0.70600879 0.50669897 4293617394
-1.1254281 0.70415163 0.50406843 4293617394
-1.1259092 0.71556628 0.50434744 4293617394
-1.1263527 0.72553319 0.50540894 4293617394
-1.1328005 0.73545957 0.50640363 4293617394
-1.1266326 0.73321831 0.50405878 4293617394
-1.1331841 0.74557984 0.50515592 4293617394
-1.140833 0.75832802 0.50905591 4293617394
-1.1335766 0.75526708 0.5048461 4293617394
-1.141014 0.76574701 0.50464177 4293617394
-1.1338209 0.76188433 0.50380284 4293617394
-1.1419237 0.77510887 0.50402963 4293617394
-1.1437714 0.78392589 0.5046916 4293617394
-1.1466485 0.79385191 0.50496697 4293617394
-1.1485593 0.80436444 0.50512809 4293617394
-1.150154 0.81680465 0.50515974 4293617394
-1.1499037 0.81238276 0.50281465 4293617394
-1.1548218 0.82590836 0.50513494 4293617394
-1.164067 0.83818567 0.50551999 4293617394
-1.156916 0.83478159 0.505485 4293617394
-1.1643524 0.84522903 0.50529462 4293617394
-1.1571434 0.84039044 0.50530553 4293617394
-1.1717362 0.85437697 0.50514591 4293617394
-1.1863427 0.86869729 0.50497556 4293617394
-1.1739277 0.86518502 0.50483608 4293617394
-1.1936574 0.87461448 0.50708461 4293617394
-1.1864988 0.87330502 0.50375569 4293617394
-1.1160631 0.63962644 0.51517165 4293617394
-1.1233311 0.64541441 0.51583982 4293617394
-1.11623 0.64374238 0.51503998 4293617394
-1.1237561 0.65443766 0.51762164 4293617394
-1.1166338 0.65467596 0.51331633 4293617394
-1.124101 0.66359872 0.51640838 4293617394
-1.117097 0.66610909 0.5129506 4293617394
-1.11755 0.67534018 0.51540303 4293617394
-1.1250288 0.68877029 0.51238233 4293617394
-1.1179392 0.68494397 0.51509577 4293617394
-1.1253731 0.69572908 0.51432884 4293617394
-1.1183501 0.69281715 0.51804966 4293617394
-1.1317374 0.7061621 0.51168311 4293617394
-1.1257784 0.70433569 0.51602536 4293617394
-1.1321135 0.7113232 0.51733851 4293617394
-1.1262102 0.71596378 0.51427299 4293617394
-1.1326573 0.72547626 0.51584637 4293617394
-1.1265008 0.72264719 0.51474935 4293617394
-1.1330255 0.73480684 0.51520139 4293617394
-1.1334323 0.74503934 0.51459688 4293617394
-1.1409507 0.7577827 0.51394629 4293617394
-1.1338273 0.75419861 0.51513535 4293617394
-1.1413213 0.76587254 0.51517916 4293617394
-1.1422935 0.77501553 0.51549798 4293617394
-1.1421119 0.78495824 0.51516527 4293617394
-1.1446615 0.79438305 0.51524413 4293617394
-1.1500955 0.80722588 0.51696652 4293617394
-1.1455243 0.80357295 0.51324421 4293617394
-1.1507981 0.81487793 0.51429456 4293617394
-1.1553284 0.82413989 0.51479071 4293617394
-1.1643623 0.83848929 0.51538467 4293617394
-1.1572101 0.83508372 0.51530468 4293617394
-1.1646556 0.84590894 0.51489085 4293617394
-1.1575032 0.84165639 0.51603061 4293617394
-1.1720588 0.8557632 0.51439118 4293617394
-1.1650276 0.85357285 0.51678294 4293617394
-1.1866422 0.86900502 0.51497507 4293617394
-1.1753798 0.86514664 0.51480055 4293617394
-1.2017602 0.87320238 0.51235813 4293617394
-1.1938702 0.87387103 0.51558286 4293617394
-1.1867579 0.87186092 0.5148837 4293617394
-1.1162686 0.63983762 0.52203441 4293617394
-1.1165659 0.64598697 0.52351689 4293617394
-1.1096438 0.64539099 0.52740473 4293617394
-1.1301477 0.65890539 0.52455878 4293617394
-1.1240743 0.65740669 0.52442825 4293617394
-1.1169068 0.65364194 0.52434051 4293617394
-1.1244544 0.66605353 0.5251869 4293617394
-1.1178412 0.67596829 0.52465671 4293617394
-1.1182269 0.68523973 0.52470356 4293617394
-1.1256871 0.69671232 0.52386099 4293617394
-1.1186351 0.69433701 0.52578646 4293617394
-1.1322196 0.70764303 0.52636516 4293617394
-1.1259768 0.70319462 0.52459472 4293617394
-1.1325109 0.71544528 0.52524447 4293617394
-1.1329154 0.72500193 0.52553564 4293617394
-1.1333157 0.73510522 0.52489269 4293617394
-1.1337084 0.74479246 0.52458274 4293617394
-1.1411566 0.75777215 0.52113992 4293617394
-1.1340979 0.75421154 0.52455866 4293617394
-1.1414896 0.76566488 0.52135158 4293617394
-1.1346077 0.76561069 0.52585685 4293617394
-1.142009 0.77552551 0.52521294 4293617394
-1.134913 0.77255571 0.52646625 4293617394
-1.1424034 0.78525782 0.52490157 4293617394
-1.1500249 0.79822963 0.52751136 4293617394
-1.1466045 0.79467428 0.52447122 4293617394
-1.1502734 0.80584723 0.52516961 4293617394
-1.1499708 0.80085111 0.5218327 4293617394
-1.1506623 0.81494755 0.52557784 4293617394
-1.1531923 0.82544315 0.52531028 4293617394
-1.1646999 0.83883625 0.52665854 4293617394
-1.1575041 0.83538586 0.52512449 4293617394
-1.1721128 0.84662718 0.5294838 4293617394
-1.1648953 0.84492797 0.5246684 4293617394
-1.1576622 0.84226763 0.52069169 4293617394
-1.1723644 0.85540998 0.52555895 4293617394
-1.1651368 0.85211015 0.52270734 4293617394
-1.1868837 0.86788493 0.52502036 4293617394
-1.1750419 0.8642056 0.52474815 4293617394
-1.2024443 0.87851113 0.52855015 4293617394
-1.1941929 0.8748526 0.52542305 4293617394
-1.1870145 0.87212467 0.52345473 4293617394
-1.1117768 0.6481663 0.5366748 4293617394
-1.1098467 0.64554149 0.53426766 4293617394
-1.1242807 0.65761888 0.53132308 4293617394
-1.1135823 0.65532529 0.53537786 4293617394
-1.1245707 0.66399348 0.5322234 4293617394
-1.1168493 0.66438806 0.53735733 4293617394
-1.1180891 0.67484248 0.5349282 4293617394
-1.1185145 0.68553543 0.53431135 4293617394
-1.1321093 0.6971724 0.53765482 4293617394
-1.1259301 0.69527406 0.53441274 4293617394
-1.1188409 0.69310242 0.53475624 4293617394
-1.1323321 0.70453793 0.53477943 4293617394
-1.1260952 0.70043415 0.53271401 4293617394
-1.1327645 0.71464497 0.53524804 4293617394
-1.1331571 0.72433227 0.5349381 4293617394
-1.1336315 0.73573589 0.53499973 4293617394
-1.1340398 0.7451334 0.53565854 4293617394
-1.1415523 0.75480366 0.53924143 4293617394
-1.1343794 0.75432396 0.53420961 4293617394
-1.1419747 0.76483107 0.53947759 4293617394
-1.1347978 0.76501048 0.53335965 4293617394
-1.1422001 0.77039236 0.53929967 4293617394
-1.1352384 0.77493066 0.53438544 4293617394
-1.1431272 0.78540385 0.53465927 4293617394
-1.1354983 0.78111488 0.53450739 4293617394
-1.1501784 0.79630542 0.53565419 4293617394
-1.1479408 0.79231602 0.53321749 4293617394
-1.1505142 0.80515766 0.53456295 4293617394
-1.1509552 0.81524861 0.53535903 4293617394
-1.1518235 0.82540792 0.53483641 4293617394
-1.164896 0.83768791 0.53515905 4293617394
-1.156225 0.83372754 0.5352968 4293617394
-1.1722698 0.84620744 0.53557026 4293617394
-1.165096 0.84302348 0.53442413 4293617394
-1.1726265 0.85529184 0.5348748 4293617394
-1.1848718 0.86887485 0.53490722 4293617394
-1.1737982 0.86496866 0.53459477 4293617394
-1.2027712 0.87976819 0.53813452 4293617394
-1.1945097 0.87562799 0.53534812 4293617394
-1.1873139 0.87243247 0.5334543 4293617394
-1.1947138 0.88188612 0.53342432 4293617394
-1.1145192 0.64484107 0.54546291 4293617394
-1.109997 0.64366019 0.54222876 4293617394
-1.110549 0.65495872 0.54514921 4293617394
-1.11095 0.66426969 0.54567182 4293617394
-1.1148957 0.67505038 0.54548246 4293617394
-1.1320035 0.6899904 0.54435176 4293617394
-1.1258651 0.68434614 0.54795212 4293617394
-1.1187974 0.68538791 0.54439127 4293617394
-1.1322738 0.69535226 0.54602802 4293617394
-1.1261274 0.69342226 0.5439809 4293617394
-1.1191015 0.69166106 0.54593092 4293617394
-1.1326619 0.70525593 0.54524922 4293617394
-1.1330546 0.71494323 0.54493934 4293617394
-1.1334473 0.72463053 0.5446294 4293617394
-1.1338931 0.73543346 0.54456097 4293617394
-1.1413381 0.74499023 0.54595989 4293617394
-1.1341765 0.7426213 0.54405391 4293617394
-1.1417468 0.75527 0.54535252 4293617394
-1.1421413 0.76500237 0.54504114 4293617394
-1.1425357 0.77473456 0.54472977 4293617394
-1.1429793 0.78518343 0.54509169 4293617394
-1.1505013 0.79637676 0.54680258 4293617394
-1.1433396 0.79385096 0.54513079 4293617394
-1.1508156 0.8051616 0.54507291 4293617394
-1.1512277 0.81476384 0.54556501 4293617394
-1.1520154 0.82520562 0.54484963 4293617394
-1.165174 0.83716363 0.54561454 4293617394
-1.1561577 0.83318651 0.54421031 4293617394
-1.1725881 0.84792936 0.54417956 4293617394
-1.1654779 0.84479052 0.54519099 4293617394
-1.1729231 0.85559696 0.54478437 4293617394
-1.18425 0.86773515 0.54450494 4293617394
-1.1732674 0.86408752 0.54451281 4293617394
-1.1947321 0.87540668 0.54342484 4293617394
-1.1878135 0.8740409 0.54855996 4293617394
-1.1950575 0.88223934 0.54490376 4293617394
-1.1881317 0.88148361 0.54889381 4293617394
-1.1164253 0.64484322 0.55519211 4293617394
-1.1136063 0.65454066 0.55460757 4293617394
-1.1118706 0.66464734 0.55501688 4293617394
-1.1257744 0.67665732 0.55590492 4293617394
-1.1164649 0.6725353 0.55495405 4293617394
-1.1260817 0.68423843 0.55566239 4293617394
-1.1325254 0.69649494 0.55315161 4293617394
-1.1264977 0.69409633 0.55592209 4293617394
-1.1192713 0.69157255 0.55197883 4293617394
-1.13296 0.70592391 0.55467671 4293617394
-1.1268942 0.70257652 0.55749124 4293617394
-1.1333448 0.71524155 0.55463058 4293617394
-1.1337788 0.72497147 0.55570519 4293617394
-1.1412681 0.73656869 0.55569667 4293617394
-1.1341491 0.73410517 0.55541295 4293617394
-1.1415875 0.74444717 0.55544454 4293617394
-1.1420383 0.75556982 0.5550887 4293617394
-1.1429725 0.76552415 0.55447537 4293617394
-1.1428468 0.77532095 0.5547353 4293617394
-1.150394 0.78656214 0.55725706 4293617394
-1.1431898 0.78373444 0.55453575 4293617394
-1.1507313 0.79547554 0.55613267 4293617394
-1.1435181 0.79306561 0.55249691 4293617394
-1.1510881 0.80467677 0.55527884 4293617394
-1.1528825 0.81454027 0.55525404 4293617394
-1.1557237 0.82476217 0.55458426 4293617394
-1.1654152 0.83633167 0.55523342 4293617394
-1.1581874 0.83178818 0.55416602 4293617394
-1.1657722 0.84533846 0.55466312 4293617394
-1.1731626 0.85448688 0.5547393 4293617394
-1.1660998 0.85242516 0.55584705 4293617394
-1.1948628 0.86829346 0.55827701 4293617394
-1.1815431 0.86667007 0.55440873 4293617394
-1.173486 0.86218119 0.55489802 4293617394
-1.1950279 0.87304515 0.55716741 4293617394
-1.1879958 0.87484396 0.55375338 4293617394
-1.185572 0.88195276 0.55672848 4293617394
-1.1244336 0.63796157 0.56507963 4293617394
-1.1247542 0.64489597 0.56623816 4293617394
-1.1176697 0.64428324 0.56448275 4293617394
-1.1181456 0.65544116 0.56495017 4293617394
-1.1166873 0.66506767 0.56536305 4293617394
-1.1322448 0.67830229 0.56967068 4293617394
-1.1260562 0.67691016 0.56536734 4293617394
-1.1182246 0.67337036 0.56401718 4293617394
-1.1324131 0.68245405 0.56953782 4293617394
-1.1263294 0.68449318 0.56393611 4293617394
-1.1267655 0.69451839 0.56465065 4293617394
-1.1197523 0.69469666 0.56424397 4293617394
-1.133273 0.70758921 0.5631904 4293617394
-1.126567 0.70373392 0.56478196 4293617394
-1.1199893 0.7015143 0.56265193 4293617394
-1.1336147 0.7147612 0.56474274 4293617394
-1.1340691 0.72526973 0.56539643 4293617394
-1.1415139 0.73770958 0.56262141 4293617394
-1.1344618 0.73495704 0.56508648 4293617394
-1.1419045 0.74557251 0.5648759 4293617394
-1.1347835 0.74191916 0.56624961 4293617394
-1.1422876 0.75502664 0.56457347 4293617394
-1.1427169 0.7649278 0.56523132 4293617394
-1.1501799 0.77831072 0.56171715 4293617394
-1.1431575 0.77510726 0.56588024 4293617394
-1.1506122 0.78634024 0.56519008 4293617394
-1.14354 0.78376144 0.56671721 4293617394
-1.1513555 0.79507196 0.5653981 4293617394
-1.1522611 0.80548817 0.56509441 4293617394
-1.1571366 0.81500614 0.5650546 4293617394
-1.1653253 0.82732952 0.56511366 4293617394
-1.1581686 0.82397473 0.56480706 4293617394
-1.1656314 0.83516538 0.56445992 4293617394
-1.166047 0.84484947 0.56495619 4293617394
-1.173574 0.85762203 0.56455845 4293617394
-1.1664112 0.85384977 0.56464994 4293617394
-1.1810279 0.86830896 0.56463045 4293617394
-1.1738033 0.86328238 0.56437737 4293617394
-1.1882825 0.87384933 0.56519705 4293617394
-1.1834433 0.88384092 0.56530941 4293617394
-1.1250578 0.64652902 0.57446778 4293617394
-1.1178955 0.64263707 0.57474154 4293617394
-1.1254246 0.65395123 0.57653093 4293617394
-1.1184564 0.65786451 0.57229167 4293617394
-1.125908 0.66457558 0.57803142 4293617394
-1.1187756 0.66476655 0.57344472 4293617394
-1.1324106 0.67847276 0.57520854 4293617394
-1.1262407 0.67449462 0.57529855 4293617394
-1.119077 0.67252713 0.57273859 4293617394
-1.1326989 0.68502128 0.57579094 4293617394
-1.1266925 0.68783855 0.57176596 4293617394
-1.1331165 0.69431746 0.57691896 4293617394
-1.1270367 0.69567782 0.57243538 4293617394
-1.1335394 0.7050727 0.57612139 4293617394
-1.127316 0.70256978 0.57221484 4293617394
-1.1339104 0.71449685 0.5754419 4293617394
-1.1343592 0.725568 0.57508779 4293617394
-1.1347518 0.7352553 0.57477778 4293617394
-1.1422505 0.7473495 0.57437921 4293617394
-1.1350895 0.7433188 0.57489783 4293617394
-1.1425649 0.75477868 0.5746057 4293617394
-1.1502438 0.76900661 0.57740033 4293617394
-1.1429565 0.76424146 0.57458138 4293617394
-1.150357 0.77180004 0.57731098 4293617394
-1.1434875 0.77704525 0.57458949 4293617394
-1.152735 0.78651029 0.57612133 4293617394
-1.143741 0.78330171 0.57438934 4293617394
-1.1566447 0.79446948 0.57526129 4293617394
-1.1552666 0.80462492 0.57538116 4293617394
-1.1570424 0.81431508 0.57441276 4293617394
-1.1655297 0.82520777 0.57531238 4293617394
-1.1583301 0.82100505 0.57473153 4293617394
-1.1659062 0.83467633 0.57475299 4293617394
-1.1736113 0.84952372 0.57757103 4293617394
-1.166332 0.8448754 0.57486081 4293617394
-1.1738358 0.85626382 0.57565492 4293617394
-1.1666771 0.85398281 0.57373232 4293617394
-1.1812232 0.86636907 0.57425016 4293617394
-1.1740427 0.86217231 0.57433224 4293617394
-1.1875855 0.87441337 0.57499617 4293617394
-1.1889592 0.88370299 0.57456118 4293617394
-1.1250529 0.6385982 0.58576411 4293617394
-1.1253322 0.64549017 0.58554363 4293617394
-1.1257098 0.65538925 0.58439875 4293617394
-1.1188939 0.65699947 0.58880603 4293617394
-1.1261144 0.66478777 0.58492625 4293617394
-1.126542 0.67553085 0.58430654 4293617394
-1.1329374 0.68488753 0.58430815 4293617394
-1.1268997 0.68188709 0.58759999 4293617394
-1.1333214 0.6946097 0.58364689 4293617394
-1.1276349 0.69937509 0.58796072 4293617394
-1.1337252 0.70502257 0.58267415 4293617394
-1.1278172 0.7048462 0.5864054 4293617394
-1.1342007 0.71479511 0.58513319 4293617394
-1.1280406 0.71035981 0.58622897 4293617394
-1.1346076 0.72502744 0.58452868 4293617394
-1.1350347 0.73488301 0.58518344 4293617394
-1.1425747 0.7481268 0.58456427 4293617394
-1.1354468 0.74433529 0.58589375 4293617394
-1.1428981 0.75512123 0.58573282 4293617394
-1.1358809 0.75233084 0.58947569 4293617394
-1.1503545 0.76778197 0.58303428 4293617394
-1.1432804 0.76426983 0.5858379 4293617394
-1.1506557 0.77264267 0.58651531 4293617394
-1.143718 0.77515042 0.58537048 4293617394
-1.1524684 0.7878598 0.58583742 4293617394
-1.1440252 0.78292769 0.58484322 4293617394
-1.1566708 0.79461706 0.58494377 4293617394
-1.1557347 0.80571085 0.58489233 4293617394
-1.1583587 0.81476349 0.58476061 4293617394
-1.1658018 0.8251195 0.58493316 4293617394
-1.158586 0.82037252 0.58458114 4293617394
-1.1662015 0.83498001 0.58461767 4293617394
-1.1665982 0.84456754 0.58459306 4293617394
-1.1740756 0.85596788 0.58445013 4293617394
-1.1669576 0.85303688 0.58488643 4293617394
-1.1957221 0.86917681 0.58697557 4293617394
-1.1828939 0.86539531 0.58503914 4293617394
-1.1742821 0.86106217 0.58428717 4293617394
-1.1959547 0.87491417 0.58679199 4293617394
-1.1873373 0.87429142 0.58048505 4293617394
-1.1962453 0.88208586 0.58656257 4293617394
-1.1891305 0.88387883 0.5802753 4293617394
-1.1253419 0.63889527 0.59541684 4293617394
-1.1255985 0.64540368 0.59495771 4293617394
-1.1260293 0.65512329 0.59593296 4293617394
-1.1190768 0.65762579 0.59428161 4293617394
-1.126429 0.665416 0.59499311 4293617394
-1.1195008 0.66419727 0.59956694 4293617394
-1.1328644 0.6749602 0.59610838 4293617394
-1.1267387 0.67335528 0.5943144 4293617394
-1.1331691 0.68411529 0.59350574 4293617394
-1.127324 0.68584573 0.59667552 4293617394
-1.1336465 0.69406664 0.59577429 4293617394
-1.127732 0.69630462 0.59578878 4293617394
-1.1341373 0.70597667 0.5956704 4293617394
-1.1279565 0.70340443 0.59335309 4293617394
-1.1344908 0.71509343 0.59482443 4293617394
-1.1420627 0.72761446 0.5963586 4293617394
-1.1348835 0.72478062 0.59451455 4293617394
-1.1424075 0.73563027 0.5967983 4293617394
-1.1352003 0.7333585 0.5931623 4293617394
-1.1428368 0.74573147 0.59717125 4293617394
-1.1357394 0.74688053 0.59242171 4293617394
-1.1431897 0.75542092 0.59546906 4293617394
-1.1359638 0.75241607 0.59224463 4293617394
-1.1505551 0.76531094 0.59360349 4293617394
-1.1435838 0.76470876 0.59579068 4293617394
-1.1508738 0.77366996 0.5926367 4293617394
-1.1440202 0.77492827 0.59623724 4293617394
-1.152734 0.78866804 0.59392726 4293617394
-1.1443938 0.78463912 0.5952304 4293617394
-1.1556644 0.79517859 0.59529769 4293617394
-1.158255 0.80525011 0.59489435 4293617394
-1.1586528 0.81506568 0.59458023 4293617394
-1.1660972 0.82542294 0.59479785 4293617394
-1.1588802 0.82067472 0.59440082 4293617394
-1.1664969 0.83528364 0.59448236 4293617394
-1.1669388 0.84518766 0.59557617 4293617394
-1.1744392 0.85734898 0.59513509 4293617394
-1.1672812 0.85363966 0.59530574 4293617394
-1.19598 0.86944181 0.59558511 4293617394
-1.1828109 0.86669064 0.59424525 4293617394
-1.1746786 0.86282587 0.59556723 4293617394
-1.1962125 0.87517911 0.59540159 4293617394
-1.1820221 0.87069345 0.59587085 4293617394
-1.1965032 0.88235086 0.59517217 4293617394
-1.1188455 0.64511633 0.60429907 4293617394
-1.1260099 0.65147066 0.60053587 4293617394
-1.1192504 0.65443283 0.60495216 4293617394
-1.1329715 0.66976547 0.6073612 4293617394
-1.1268072 0.66748136 0.60519981 4293617394
-1.1196409 0.66401267 0.604725 4293617394
-1.1331129 0.67521596 0.60441512 4293617394
-1.1269305 0.6722315 0.60263228 4293617394
-1.133426 0.68261093 0.60464048 4293617394
-1.1276221 0.68773758 0.60434473 4293617394
-1.1279855 0.69613284 0.60487926 4293617394
-1.1343883 0.70570433 0.60482568 4293617394
-1.1282834 0.70268363 0.60579908 4293617394
-1.1348068 0.71572423 0.60493159 4293617394
-1.1351936 0.72485828 0.60522074 4293617394
-1.142805 0.73903668 0.605739 4293617394
-1.1355662 0.73476624 0.6038959 4293617394
-1.1430303 0.74459809 0.60556108 4293617394
-1.1434249 0.75433034 0.6052497 4293617394
-1.1438757 0.76545286 0.60489392 4293617394
-1.1513488 0.77549672 0.60656518 4293617394
-1.1442186 0.77424389 0.60414863 4293617394
-1.1518756 0.78888828 0.60557729 4293617394
-1.1446403 0.78432149 0.60429031 4293617394
-1.1536409 0.7958914 0.60464132 4293617394
-1.1585491 0.8055523 0.60471398 4293617394
-1.1589469 0.815368 0.60439998 4293617394
-1.1663727 0.82543629 0.60438955 4293617394
-1.1591742 0.82097697 0.60422057 4293617394
-1.1667844 0.83516377 0.60468614 4293617394
-1.1743155 0.84645033 0.60657728 4293617394
-1.1671323 0.84326518 0.60510904 4293617394
-1.1746224 0.85473579 0.60530937 4293617394
-1.1821048 0.86669147 0.60453969 4293617394
-1.1749753 0.86313087 0.60547686 4293617394
-1.1965133 0.87548822 0.6054461 4293617394
-1.1858072 0.87136549 0.60468709 4293617394
-1.196804 0.88265997 0.60521668 4293617394
-1.1264204 0.64792967 0.6199736 4293617394
-1.1191334 0.64541203 0.61390686 4293617394
-1.126613 0.6556133 0.61558682 4293617394
-1.1194744 0.65327603 0.61444032 4293617394
-1.1330959 0.66989332 0.61151463 4293617394
-1.1270227 0.66572148 0.61526346 4293617394
-1.1334369 0.67514074 0.61582404 4293617394
-1.1273021 0.6726135 0.61504292 4293617394
-1.1337162 0.68167156 0.61612684 4293617394
-1.1279069 0.6879546 0.61396062 4293617394
-1.1281959 0.69466788 0.61433738 4293617394
-1.1347021 0.70691097 0.61402595 4293617394
-1.1285447 0.7026881 0.61490905 4293617394
-1.1422511 0.7184816 0.61614239 4293617394
-1.1350151 0.71430606 0.6142512 4293617394
-1.1425128 0.7256549 0.61490035 4293617394
-1.1428828 0.73485309 0.61450481 4293617394
-1.1504602 0.74714315 0.61656374 4293617394
-1.1432973 0.74453944 0.61496073 4293617394
-1.1506429 0.75174809 0.61627656 4293617394
-1.1438364 0.75808436 0.61417931 4293617394
-1.1441442 0.76536554 0.61438942 4293617394
-1.1516058 0.77546352 0.61558002 4293617394
-1.1444656 0.77272123 0.61496413 4293617394
-1.151996 0.785532 0.61463624 4293617394
-1.1549239 0.79584789 0.61453623 4293617394
-1.1588005 0.80500448 0.6142801 4293617394
-1.1592504 0.81491202 0.61564821 4293617394
-1.166631 0.82462156 0.61457223 4293617394
-1.1594682 0.82127923 0.61404032 4293617394
-1.1743393 0.83942306 0.61757171 4293617394
-1.1670756 0.83479869 0.61537516 4293617394
-1.1745288 0.84581739 0.6149379 4293617394
-1.1673309 0.8428908 0.61257714 4293617394
-1.1820271 0.85571337 0.61770231 4293617394
-1.1748379 0.85440105 0.61331373 4293617394
-1.1823704 0.86594272 0.61488402 4293617394
-1.175154 0.86286259 0.61209828 4293617394
-1.1968139 0.87579745 0.61549056 4293617394
-1.186106 0.87167263 0.61466426 4293617394
-1.1970464 0.88153481 0.61530709 4293617394
-1.126209 0.6397866 0.62437505 4293617394
-1.1264335 0.64506114 0.62458283 4293617394
-1.1268648 0.65499139 0.625269 4293617394
-1.133325 0.66535449 0.62607253 4293617394
-1.1272186 0.66372126 0.62498969 4293617394
-1.1336786 0.6744712 0.6252265 4293617394
-1.1273968 0.67006886 0.62202597 4293617394
-1.1341022 0.68448502 0.62552208 4293617394
-1.128179 0.68936652 0.62140864 4293617394
-1.1346029 0.69531494 0.62733132 4293617394
-1.1284437 0.69492263 0.62261117 4293617394
-1.1349542 0.70495963 0.62563694 4293617394
-1.1286671 0.70043612 0.62243479 4293617394
-1.1353106 0.71434462 0.62450516 4293617394
-1.1427976 0.72529519 0.62534899 4293617394
-1.135591 0.72126412 0.62428379 4293617394
-1.1503969 0.73882371 0.6263876 4293617394
-1.1431828 0.73485702 0.62496662 4293617394
-1.1506473 0.74532765 0.62571329 4293617394
-1.1433758 0.74228835 0.62094986 4293617394
-1.1510007 0.75345445 0.62629253 4293617394
-1.1441354 0.75905776 0.62319785 4293617394
-1.1515235 0.76496792 0.6278823 4293617394
-1.1443207 0.76419735 0.62223786 4293617394
-1.1533982 0.77554387 0.62559527 4293617394
-1.1445959 0.77107877 0.62188512 4293617394
-1.1548465 0.78551668 0.62428385 4293617394
-1.1659259 0.7982474 0.6281116 4293617394
-1.1577976 0.79462326 0.62423903 4293617394
-1.1662112 0.80529064 0.6278863 4293617394
-1.1589962 0.80466825 0.6215927 4293617394
-1.1665713 0.8191604 0.62038946 4293617394
-1.1595126 0.81497228 0.62470973 4293617394
-1.1662552 0.82571638 0.62434131 4293617394
-1.159833 0.82272911 0.6246658 4293617394
-1.1745536 0.83910102 0.62551749 4293617394
-1.1673183 0.83410329 0.6248486 4293617394
-1.1747806 0.84530115 0.62446898 4293617394
-1.1821399 0.85446703 0.62343609 4293617394
-1.175163 0.85344344 0.62603045 4293617394
-1.184111 0.86574686 0.62441796 4293617394
-1.175596 0.86241299 0.6281727 4293617394
-1.2052021 0.87950391 0.62332058 4293617394
-1.1966022 0.87509084 0.62542504 4293617394
-1.1899782 0.8724345 0.62639862 4293617394
-1.1974332 0.88193232 0.62822139 4293617394
-1.1324129 0.63736153 0.63472867 4293617394
-1.1327287 0.64374876 0.63650411 4293617394
-1.1267834 0.64566094 0.63591993 4293617394
-1.1332664 0.65548009 0.6383065 4293617394
-1.1270713 0.65520358 0.63216376 4293617394
-1.1336457 0.66581672 0.63659 4293617394
-1.1274623 0.66485244 0.63185507 4293617394
-1.1339688 0.67476946 0.63491774 4293617394
-1.1343817 0.6852355 0.63418704 4293617394
-1.1347901 0.69474941 0.63467455 4293617394
-1.1425231 0.70943427 0.638708 4293617394
