# .PCD v0.7 - Point Cloud Data file format
VERSION 0.7
FIELDS x y z rgba
SIZE 4 4 4 4
TYPE F F F U
COUNT 1 1 1 1
WIDTH 1084
HEIGHT 1
VIEWPOINT 0 0 0 1 0 0 0
POINTS 1084
DATA ascii
-1.1283377 0.5307762 0.17810558 4278821823
-1.1343176 0.54030609 0.17715749 4278821823
-1.1246445 0.54643893 0.17897317 4278821823
-1.1107498 0.6061303 0.17854393 4278821823
-1.1081531 0.6058048 0.17620604 4278821823
-1.1104076 0.61739862 0.17455557 4278821823
-1.1046197 0.61526805 0.17733815 4278821823
-1.1122024 0.62409705 0.1766839 4278821823
-1.1067387 0.62287974 0.1771716 4278821823
-1.09796 0.62457883 0.17484978 4278821823
-1.1105266 0.6378755 0.17752676 4278821823
-1.1073878 0.63637233 0.17638476 4278821823
-1.0973065 0.63546908 0.17685109 4278821823
-1.1110379 0.64239836 0.1749531 4278821823
-1.1070559 0.64347398 0.17534897 4278821823
-1.0977362 0.6430847 0.17578264 4278821823
-1.1034162 0.65364981 0.17744102 4278821823
-1.0986812 0.65380502 0.17818728 4278821823
-0.72532314 0.69859844 0.17891085 4278821823
-1.1162604 0.71503246 0.1754856 4278821823
-1.1046591 0.7138207 0.17553671 4278821823
-1.09553 0.71329188 0.17814109 4278821823
-1.0871246 0.71279079 0.17836408 4278821823
-1.1421111 0.4851177 0.1808168 4278821823
-1.1335287 0.48612627 0.18402295 4278821823
-1.1269449 0.48622286 0.18683806 4278821823
-1.1414191 0.49697423 0.18385977 4278821823
-1.1355062 0.49392778 0.18593475 4278821823
-1.1115227 0.49045679 0.18986191 4278821823
-1.1095569 0.4904151 0.1880957 4278821823
-1.1413424 0.50484371 0.18877533 4278821823
-1.1363887 0.50511444 0.18519568 4278821823
-1.128921 0.50907075 0.18415929 4278821823
-1.1408476 0.51876587 0.18852784 4278821823
-1.1343002 0.51573932 0.18481968 4278821823
-1.1280299 0.51434618 0.18313259 4278821823
-1.1418216 0.52108759 0.1895251 4278821823
-1.1349804 0.52482802 0.1856609 4278821823
-1.1295929 0.52453417 0.18344736 4278821823
-1.1321509 0.53618842 0.18523902 4278821823
-1.1280743 0.53568232 0.18624735 4278821823
-1.1342599 0.5414139 0.18317342 4278821823
-1.1267631 0.54540014 0.18328859 4278821823
-1.0961016 0.5878799 0.18889958 4278821823
-1.1058865 0.59826326 0.18286803 4278821823
-1.0981952 0.59385854 0.18679143 4278821823
-1.1054058 0.60532701 0.18408193 4278821823
-1.0951014 0.60783356 0.18807645 4278821823
-1.1105285 0.61726367 0.18231478 4278821823
-1.1051122 0.61471969 0.1839518 4278821823
-1.1119895 0.62182629 0.18058112 4278821823
-1.1060462 0.62529695 0.18399853 4278821823
-1.0965734 0.62812155 0.18960413 4278821823
-0.71790129 0.62522858 0.18944648 4278821823
-1.1105946 0.6322369 0.18137945 4278821823
-1.104358 0.6357705 0.1836385 4278821823
-1.098814 0.63548368 0.18741655 4278821823
-0.72568595 0.63735002 0.18681824 4278821823
-0.71644819 0.63319278 0.18937081 4278821823
-1.1041887 0.64364874 0.18406695 4278821823
-1.0973407 0.64703733 0.18620144 4278821823
-0.72355545 0.645136 0.18680833 4278821823
-0.71684724 0.64551139 0.18851499 4278821823
-0.70956403 0.64440858 0.18965797 4278821823
-1.1028248 0.65266526 0.18171771 4278821823
-1.0960317 0.6556133 0.18623999 4278821823
-1.0885783 0.6599043 0.18266577 4278821823
-0.7235865 0.65273762 0.1886286 4278821823
-0.71964908 0.65125418 0.1878359 4278821823
-1.0963519 0.66229039 0.18747857 4278821823
-1.0797309 0.66666871 0.18823469 4278821823
-0.72085637 0.66041571 0.18357265 4278821823
-0.71768147 0.66833454 0.18943293 4278821823
-1.0747253 0.67124832 0.18974091 4278821823
-0.70299232 0.67871249 0.18896033 4278821823
-0.71104461 0.68845409 0.18552893 4278821823
-0.7052176 0.68515527 0.18742043 4278821823
-0.69988644 0.68130434 0.18866566 4278821823
-0.72458202 0.6989032 0.18385842 4278821823
-0.71462369 0.69679654 0.18585618 4278821823
-0.70844901 0.69248033 0.18845695 4278821823
-1.1041619 0.70994037 0.18635367 4278821823
-1.0954403 0.70812744 0.18853293 4278821823
-1.0853007 0.70562023 0.18874395 4278821823
-1.0702798 0.70978886 0.18919323 4278821823
-1.1117196 0.7180779 0.18651879 4278821823
-1.1059865 0.71453488 0.18630566 4278821823
-1.0953318 0.71220225 0.18556367 4278821823
-1.0849992 0.71139276 0.18397726 4278821823
-1.0770085 0.71073556 0.18714027 4278821823
-1.0654556 0.71171004 0.18727738 4278821823
-1.1137009 0.72347963 0.18706006 4278821823
-1.1095243 0.72014588 0.18630673 4278821823
-1.1123487 0.73345798 0.18947357 4278821823
-1.1097559 0.73107964 0.18835852 4278821823
-1.1256754 0.80656463 0.18981524 4278821823
-1.1404033 0.81819236 0.18788323 4278821823
-1.1323438 0.81631404 0.18934777 4278821823
-1.1288376 0.81090194 0.1897857 4278821823
-1.1241553 0.83554077 0.18918112 4278821823
-1.1304517 0.84717923 0.18954642 4278821823
-1.1255224 0.84215951 0.18888733 4278821823
-1.1338105 0.85343468 0.18944898 4278821823
-1.1134229 0.4884035 0.19187424 4278821823
-0.73882234 0.4836607 0.19923794 4278821823
-1.1433961 0.49725309 0.19610791 4278821823
-1.1354499 0.49663723 0.19485295 4278821823
-1.1256521 0.49393332 0.19499806 4278821823
-1.1152782 0.49415177 0.1966119 4278821823
-1.0985619 0.49918172 0.19937593 4278821823
-0.96129966 0.49834794 0.19935244 4278821823
-0.95292866 0.49664727 0.19884637 4278821823
-0.73957425 0.49465108 0.19975764 4278821823
-1.1518028 0.50613797 0.19771115 4278821823
-1.1460164 0.50355321 0.19390434 4278821823
-1.1382713 0.50246096 0.19254977 4278821823
-0.9624356 0.50172949 0.19887996 4278821823
-1.1611698 0.51821744 0.19686398 4278821823
-1.152589 0.5154711 0.19771287 4278821823
-1.1441603 0.51510221 0.19412225 4278821823
-1.1360763 0.51482952 0.19181269 4278821823
-1.1625199 0.52140874 0.19595106 4278821823
-1.1521966 0.52621913 0.19532982 4278821823
-1.1441097 0.52353108 0.19587769 4278821823
-1.1365799 0.52751833 0.1939231 4278821823
-1.1422108 0.53224373 0.19636904 4278821823
-1.1344988 0.53522587 0.19342937 4278821823
-1.1290605 0.53486335 0.19015107 4278821823
-1.1282359 0.54204607 0.19592471 4278821823
-1.0903035 0.56585407 0.19841388 4278821823
-1.0823293 0.57865703 0.19915679 4278821823
-1.0924855 0.5859074 0.19448322 4278821823
-1.0876836 0.58470476 0.19673923 4278821823
-1.0708556 0.58691615 0.19962618 4278821823
-0.73024231 0.58512485 0.19949204 4278821823
-0.72895014 0.58618182 0.19760491 4278821823
-1.0929911 0.59462863 0.19437253 4278821823
-1.087611 0.59830421 0.19983968 4278821823
-1.0740321 0.59423089 0.19837895 4278821823
-1.0681881 0.5991264 0.19888046 4278821823
-0.72488534 0.59617889 0.19849747 4278821823
-1.0959468 0.6062299 0.19195664 4278821823
-1.0865792 0.60507882 0.19717403 4278821823
-1.0787187 0.60234392 0.19812953 4278821823
-1.0689282 0.60155845 0.1981578 4278821823
-0.72227031 0.60585934 0.1991365 4278821823
-0.71657449 0.60779631 0.19850446 4278821823
-1.0950537 0.61491156 0.19417009 4278821823
-1.0875529 0.61386633 0.19839959 4278821823
-0.72441089 0.61653376 0.19760662 4278821823
-0.71564144 0.61628103 0.19680558 4278821823
-1.0952723 0.62508976 0.19422042 4278821823
-0.73057222 0.62381023 0.1989404 4278821823
-0.72580385 0.62430549 0.19613737 4278821823
-0.71693528 0.62541181 0.19446589 4278821823
-1.0946084 0.63502085 0.19368565 4278821823
-1.0883484 0.63427329 0.19766113 4278821823
-0.73002368 0.63658273 0.19841953 4278821823
-0.72452259 0.63431144 0.1958881 4278821823
-0.71631753 0.63406295 0.19452071 4278821823
-1.0930748 0.64390004 0.19442843 4278821823
-1.0869803 0.64623827 0.19832766 4278821823
-0.72485483 0.64503324 0.19526529 4278821823
-0.71395272 0.64280373 0.19362408 4278821823
-0.70990103 0.64034289 0.19240066 4278821823
-1.0929503 0.65417004 0.19294962 4278821823
-1.0844327 0.65635377 0.19780461 4278821823
-0.72468239 0.65515327 0.19540101 4278821823
-0.71915442 0.65393472 0.19334941 4278821823
-1.0931401 0.66376036 0.19587907 4278821823
-1.0877013 0.6675036 0.19441794 4278821823
-0.72330379 0.66371107 0.19613898 4278821823
-0.71781313 0.66645384 0.19387528 4278821823
-1.0920475 0.6739223 0.19569308 4278821823
-1.0857853 0.67558789 0.19480029 4278821823
-1.0760863 0.67474663 0.19332409 4278821823
-1.0677621 0.67519331 0.19352356 4278821823
-0.71265429 0.67506343 0.19908284 4278821823
-0.70555365 0.67821634 0.19625595 4278821823
-0.69895631 0.67858374 0.19775841 4278821823
-1.0923818 0.68470657 0.19815427 4278821823
-1.0872768 0.6840077 0.19549793 4278821823
-1.0722858 0.68564963 0.19574484 4278821823
-1.0642116 0.68499935 0.19653964 4278821823
-0.71118236 0.68562329 0.19700536 4278821823
-0.70664132 0.6847564 0.19488773 4278821823
-0.69982606 0.6813001 0.19672628 4278821823
-1.1002537 0.69985837 0.19763561 4278821823
-1.0950233 0.69550049 0.19614659 4278821823
-1.0869485 0.69407034 0.19174552 4278821823
-1.0759747 0.69637036 0.19584501 4278821823
-1.0645736 0.69474757 0.19677961 4278821823
-0.72448713 0.69878936 0.19567677 4278821823
-0.71412224 0.69650364 0.19513537 4278821823
-0.70865881 0.69261557 0.19567126 4278821823
-1.1024649 0.70632088 0.19636282 4278821823
-1.0975347 0.70485359 0.19262537 4278821823
-1.0845008 0.70459121 0.19259179 4278821823
-1.0739439 0.70493484 0.19296825 4278821823
-1.0643704 0.70525384 0.19414052 4278821823
-1.1126037 0.71807712 0.19470717 4278821823
-1.104677 0.71435666 0.19421528 4278821823
-1.0991689 0.71086848 0.19064961 4278821823
-1.0813493 0.71028763 0.19140323 4278821823
-1.1119589 0.72467679 0.1942554 4278821823
-1.1084838 0.72484398 0.1961077 4278821823
-1.1110871 0.73078346 0.19438446 4278821823
-1.1050785 0.7352854 0.19705954 4278821823
-1.0990863 0.73836857 0.19627374 4278821823
-1.1109946 0.74086213 0.19665559 4278821823
-1.1057751 0.74425662 0.19605908 4278821823
-1.0991788 0.74462748 0.19592974 4278821823
-1.1106118 0.75772417 0.19916832 4278821823
-1.1053987 0.75494993 0.19705427 4278821823
-1.1117742 0.76417744 0.19719671 4278821823
-1.1080365 0.76356918 0.19583549 4278821823
-1.113816 0.7740292 0.19582334 4278821823
-1.1020316 0.7759732 0.19817835 4278821823
-1.1150738 0.78483367 0.19697669 4278821823
-1.1060427 0.78253555 0.19819148 4278821823
-1.121479 0.79521102 0.19660601 4278821823
-1.1146412 0.79547417 0.19648176 4278821823
-1.1086562 0.79318959 0.1983884 4278821823
-1.1246624 0.80684131 0.19488855 4278821823
-1.1164985 0.80291581 0.19692001 4278821823
-1.1057758 0.80900836 0.19890396 4278821823
-1.1329604 0.81454784 0.1910979 4278821823
-1.1256702 0.81449145 0.19684954 4278821823
-1.1173967 0.81671882 0.19654772 4278821823
-1.1070246 0.81211662 0.19827545 4278821823
-1.1302712 0.82881969 0.19416551 4278821823
-1.1242521 0.82546294 0.19515747 4278821823
-1.1183701 0.82530999 0.1946713 4278821823
-1.1318277 0.83555162 0.1958705 4278821823
-1.1261749 0.83444214 0.19481069 4278821823
-1.1198599 0.83080655 0.19058351 4278821823
-1.1316359 0.84562343 0.19771959 4278821823
-1.1260893 0.84469956 0.19494165 4278821823
-1.1335623 0.85452628 0.19422798 4278821823
-1.1280179 0.85367858 0.19525096 4278821823
-1.1337372 0.86251301 0.19623578 4278821823
-1.1287599 0.86464894 0.19742109 4278821823
-0.74064606 0.48777834 0.205356 4278821823
-0.73503721 0.48588079 0.20500977 4278821823
-0.72551823 0.48609188 0.20830207 4278821823
-1.1577396 0.49452955 0.20108399 4278821823
-1.149163 0.49769977 0.20146382 4278821823
-1.1258054 0.49714714 0.20126629 4278821823
-1.1128274 0.49933141 0.20453182 4278821823
-1.1035163 0.49960274 0.20487434 4278821823
-0.98392886 0.49880803 0.20363364 4278821823
-0.9632796 0.49888492 0.20315248 4278821823
-0.95465225 0.49809116 0.20451501 4278821823
-0.94561654 0.4971734 0.2036794 4278821823
-0.93557107 0.49748957 0.2047824 4278821823
-0.92452061 0.49602744 0.20452216 4278821823
-0.91729116 0.49584556 0.2059996 4278821823
-0.90507334 0.49656656 0.20738961 4278821823
-0.89352077 0.49590623 0.20828146 4278821823
-0.88477987 0.49482214 0.20849825 4278821823
-0.87178397 0.49802002 0.20932934 4278821823
-0.86297029 0.49747926 0.20920649 4278821823
-0.8299157 0.49015886 0.20511986 4278821823
-0.81368911 0.49470162 0.20841816 4278821823
-0.80679667 0.49379215 0.20878497 4278821823
-0.79941577 0.49447584 0.2091466 4278821823
-0.74097782 0.4926281 0.20723593 4278821823
-0.7363025 0.49541724 0.20551154 4278821823
-1.1508597 0.50717533 0.20545788 4278821823
-1.1483039 0.50329173 0.20145392 4278821823
-1.132777 0.50227141 0.20314154 4278821823
-1.1256843 0.50284958 0.20701608 4278821823
-1.1165292 0.50225806 0.20780154 4278821823
-1.1067624 0.50127292 0.20671546 4278821823
-1.0965624 0.50142527 0.20686021 4278821823
-1.0819861 0.50514466 0.20729092 4278821823
-1.0727744 0.50505257 0.20793229 4278821823
-1.0187826 0.50209177 0.20834252 4278821823
-1.0027802 0.50576341 0.20644283 4278821823
-0.99699211 0.50380731 0.20557082 4278821823
-0.98225373 0.50546283 0.20690951 4278821823
-0.97436792 0.50595462 0.20630087 4278821823
-0.96489942 0.50355756 0.20561525 4278821823
-0.95627302 0.50144464 0.20856273 4278821823
-0.93558246 0.50299096 0.20652573 4278821823
-0.92661047 0.50074452 0.20614524 4278821823
-0.91971052 0.50114542 0.2071359 4278821823
-0.87608534 0.50333059 0.20968539 4278821823
-0.7411623 0.50510359 0.20150626 4278821823
-0.73537296 0.50559068 0.20569906 4278821823
-1.1532974 0.51784956 0.20050728 4278821823
-1.1356601 0.51035511 0.20758635 4278821823
-1.1281949 0.51079702 0.20954533 4278821823
-1.0058779 0.51169348 0.20764729 4278821823
-0.74313086 0.51622695 0.20845389 4278821823
-0.73673254 0.51456219 0.20591146 4278821823
-1.1445352 0.52402163 0.20105018 4278821823
-1.1373239 0.52810377 0.20221944 4278821823
-0.73562497 0.52441686 0.20730907 4278821823
-1.1434311 0.53158849 0.20040552 4278821823
-1.0839158 0.56760883 0.20787403 4278821823
-1.0792261 0.56798589 0.20840359 4278821823
-1.0842953 0.57480198 0.20450468 4278821823
-1.0730966 0.57762694 0.20732647 4278821823
-1.0692009 0.57835662 0.20309582 4278821823
-0.73110735 0.57675916 0.20651671 4278821823
-1.0834326 0.58471996 0.20550658 4278821823
-1.0769794 0.58242285 0.20523092 4278821823
-1.0691837 0.58569133 0.20327617 4278821823
-0.73277843 0.58522773 0.20645532 4278821823
-0.72889084 0.58501798 0.20279069 4278821823
-1.0844338 0.59458399 0.20493761 4278821823
-1.0738921 0.59549624 0.20519508 4278821823
-1.0677719 0.59278423 0.20224087 4278821823
-0.7337923 0.59613514 0.20749113 4278821823
-0.72806793 0.59635013 0.20217228 4278821823
-1.0856817 0.60528845 0.20521012 4278821823
-1.0742081 0.60520482 0.20534116 4278821823
-0.73124433 0.60332114 0.20913047 4278821823
-0.72693962 0.60650378 0.20535466 4278821823
-1.0901076 0.61173695 0.20064676 4278821823
-1.0840877 0.61622053 0.20567405 4278821823
-1.0772067 0.61436284 0.20671679 4278821823
-0.73059034 0.61532027 0.20610382 4278821823
-0.72739685 0.61493802 0.20413111 4278821823
-1.0910335 0.62499917 0.20618097 4278821823
-1.0862938 0.6245476 0.20463893 4278821823
-1.0797102 0.62080222 0.20634501 4278821823
-0.73068696 0.62491447 0.20460123 4278821823
-0.7280786 0.62579393 0.2047278 4278821823
-1.0913481 0.63643152 0.20634106 4278821823
-1.0860436 0.6350081 0.20525312 4278821823
-0.73068941 0.63623708 0.20642141 4278821823
-0.7280128 0.6352492 0.20384628 4278821823
-1.0914637 0.64448255 0.20405769 4278821823
-1.0865846 0.64538985 0.20445219 4278821823
-0.72681081 0.64639711 0.20442912 4278821823
-1.0913486 0.65421081 0.20345958 4278821823
-1.0869284 0.65561283 0.20556489 4278821823
-0.72646272 0.65510011 0.20467445 4278821823
-1.092906 0.66576529 0.20570596 4278821823
-1.0874074 0.66358417 0.20544727 4278821823
-0.72494614 0.66428876 0.20506799 4278821823
-0.71834511 0.66882116 0.20597698 4278821823
-1.0936341 0.67581928 0.20453155 4278821823
-1.0876931 0.67433977 0.20509768 4278821823
-0.72264373 0.67325187 0.20728013 4278821823
-0.7151407 0.67675263 0.20543136 4278821823
-0.70928943 0.67882252 0.20163122 4278821823
-1.0950632 0.68512416 0.20473951 4278821823
-1.0887825 0.68037033 0.20713112 4278821823
-0.72040814 0.68165278 0.20922892 4278821823
-0.7142905 0.68549383 0.20555896 4278821823
-0.70912284 0.68578374 0.20150679 4278821823
-1.1005616 0.69566369 0.20252204 4278821823
-1.0971577 0.69460863 0.20505643 4278821823
-1.072021 0.69476557 0.20088167 4278821823
-1.0633811 0.69439173 0.20080493 4278821823
-0.72462738 0.69624954 0.20601597 4278821823
-0.71621394 0.6935426 0.20344266 4278821823
-1.1021862 0.70728964 0.20231603 4278821823
-1.0970438 0.70453548 0.20578459 4278821823
-1.0604981 0.7026968 0.20014864 4278821823
-1.1107754 0.71949387 0.20300315 4278821823
-1.1027339 0.71329212 0.20307639 4278821823
-1.0975654 0.71343392 0.20745994 4278821823
-1.1121742 0.72386235 0.20134322 4278821823
-1.1054307 0.72640127 0.20590049 4278821823
-1.0983727 0.72357738 0.20751473 4278821823
-1.1106431 0.73395729 0.20318931 4278821823
-1.1075659 0.73528361 0.20484304 4278821823
-1.1110791 0.74559826 0.20613909 4278821823
-1.1070805 0.74476588 0.20465946 4278821823
-1.11238 0.75600004 0.20481697 4278821823
-1.107774 0.75310534 0.20449899 4278821823
-1.1139779 0.76488566 0.20472187 4278821823
-1.1092243 0.76762789 0.20283863 4278821823
-1.114307 0.77495897 0.20501283 4278821823
-1.1050169 0.7741515 0.20216985 4278821823
-1.1210146 0.78570461 0.20331557 4278821823
-1.1159829 0.78411067 0.20538266 4278821823
-1.1087786 0.78250122 0.20087855 4278821823
-1.1214014 0.79425907 0.20536372 4278821823
-1.1166959 0.79525304 0.20484957 4278821823
-1.1091173 0.79023302 0.20079671 4278821823
-1.1218264 0.8065604 0.20394036 4278821823
-1.1174278 0.80415702 0.20538396 4278821823
-1.1084901 0.80897439 0.20156978 4278821823
-1.1214535 0.81673408 0.20418265 4278821823
-1.117486 0.81394035 0.20669693 4278821823
-1.1095557 0.81247544 0.20052949 4278821823
-1.1232074 0.82556617 0.20375226 4278821823
-1.1177747 0.82451183 0.20694143 4278821823
-1.1303028 0.83029115 0.20076331 4278821823
-1.1247156 0.83552384 0.20534891 4278821823
-1.1190003 0.83416963 0.20900239 4278821823
-1.1316252 0.84791666 0.20858356 4278821823
-1.1264136 0.84524757 0.20551383 4278821823
-1.1316657 0.85646927 0.20455423 4278821823
-1.1281121 0.85489583 0.20384857 4278821823
-1.1409734 0.86822605 0.20563596 4278821823
-1.1331573 0.86450732 0.20560709 4278821823
-1.1291913 0.86174297 0.20480733 4278821823
-1.137257 0.87189883 0.20893724 4278821823
-0.66078925 0.46880025 0.21929465 4278821823
-0.68278074 0.4795543 0.21591729 4278821823
-0.67651558 0.4794693 0.21822825 4278821823
-0.66139859 0.47070324 0.21857157 4278821823
-0.65981811 0.47066975 0.21715154 4278821823
-0.81147003 0.48819456 0.21482661 4278821823
-0.80575413 0.48866913 0.21656071 4278821823
-0.73048198 0.4833113 0.21162337 4278821823
-0.72385538 0.48774293 0.21497469 4278821823
-0.71571577 0.48628181 0.21526605 4278821823
-0.70667851 0.48664704 0.21627015 4278821823
-0.69608438 0.48658139 0.2173425 4278821823
-0.68454337 0.48634991 0.21812382 4278821823
-0.67696536 0.48406285 0.21775281 4278821823
-0.66448575 0.48270917 0.21936515 4278821823
-0.95738769 0.49929884 0.21102259 4278821823
-0.9438805 0.49884051 0.21237832 4278821823
-0.93505293 0.49796826 0.21437205 4278821823
-0.92418122 0.49722528 0.21479028 4278821823
-0.91358501 0.49790862 0.21388653 4278821823
-0.90655911 0.49808463 0.21351501 4278821823
-0.89525568 0.49550706 0.21400318 4278821823
-0.88346839 0.49657488 0.21578529 4278821823
-0.87609649 0.49761537 0.2149601 4278821823
-0.86529648 0.49798888 0.21458355 4278821823
-0.85544717 0.49849918 0.21430638 4278821823
-0.84606212 0.49734381 0.21761872 4278821823
-0.83398926 0.49844569 0.21741951 4278821823
-0.82345724 0.49860156 0.21652876 4278821823
-0.81461519 0.49544743 0.21626097 4278821823
-0.80714011 0.49236649 0.21645649 4278821823
-0.79326332 0.49362284 0.21655744 4278821823
-0.78510976 0.49660102 0.21541072 4278821823
-0.77547634 0.49767536 0.21929324 4278821823
-0.7630595 0.49876758 0.21944475 4278821823
-0.75832027 0.49935839 0.21975005 4278821823
-0.74242377 0.49545413 0.21682167 4278821823
-0.7354362 0.4946695 0.21514148 4278821823
-0.72667444 0.49166384 0.21506509 4278821823
-0.70228922 0.49022266 0.21858652 4278821823
-0.69908458 0.49015471 0.21570715 4278821823
-1.1463132 0.50764972 0.21005894 4278821823
-1.1333134 0.50678712 0.21535742 4278821823
-1.1243746 0.50623101 0.21462351 4278821823
-1.1153977 0.5048188 0.2153118 4278821823
-1.1046439 0.50511694 0.21589445 4278821823
-1.096051 0.50514388 0.21575162 4278821823
-1.0851619 0.50575405 0.21395883 4278821823
-1.0749557 0.50611311 0.21438202 4278821823
-1.0646877 0.50610012 0.21557942 4278821823
-1.0551515 0.50503993 0.21559849 4278821823
-1.0451562 0.50519347 0.21437657 4278821823
-1.0343566 0.50547063 0.21632926 4278821823
-1.0229737 0.50526077 0.21615133 4278821823
-1.013999 0.50478613 0.21612692 4278821823
-1.00489 0.50546694 0.21436967 4278821823
-0.99494803 0.50625134 0.2150988 4278821823
-0.98471606 0.50655985 0.21581949 4278821823
-0.97480929 0.50600928 0.21527055 4278821823
-0.9658497 0.50349033 0.21469173 4278821823
-0.95626187 0.5026139 0.21530855 4278821823
-0.94629955 0.50224799 0.21509877 4278821823
-0.9373548 0.5022971 0.21666589 4278821823
-0.92441368 0.50375414 0.21471374 4278821823
-0.91565675 0.50315696 0.21568818 4278821823
-0.90428025 0.501176 0.21637759 4278821823
-0.89844197 0.50033993 0.21093903 4278821823
-0.88533878 0.50305581 0.21657197 4278821823
-0.87777644 0.50211382 0.21204689 4278821823
-0.8650741 0.50035387 0.21876784 4278821823
-0.85367888 0.50021708 0.21248987 4278821823
-0.84352481 0.50204694 0.21669632 4278821823
-0.83711731 0.50153768 0.21595047 4278821823
-0.82568228 0.50188637 0.21497089 4278821823
-0.8190003 0.50824201 0.21021001 4278821823
-0.80915117 0.50224912 0.21939544 4278821823
-0.77014887 0.50085968 0.21744426 4278821823
-0.76486111 0.50208259 0.21784224 4278821823
-0.7553755 0.50286371 0.21944696 4278821823
-0.74363422 0.50377011 0.21763939 4278821823
-0.73692739 0.50421953 0.21404591 4278821823
-1.1348017 0.51083702 0.21403712 4278821823
-1.0257204 0.51045179 0.21450022 4278821823
-1.0134761 0.51290524 0.21376806 4278821823
-1.0089219 0.51087326 0.21097711 4278821823
-0.81601453 0.51581222 0.21348095 4278821823
-0.74184602 0.5130384 0.21474668 4278821823
-0.73783982 0.51198506 0.21377942 4278821823
-0.74038589 0.52310145 0.211307 4278821823
-0.73613703 0.52673221 0.21248272 4278821823
-1.0836678 0.5662635 0.21345738 4278821823
-1.0706189 0.56980014 0.2186635 4278821823
-1.0823736 0.57510859 0.21443141 4278821823
-1.0781252 0.57480156 0.21584466 4278821823
-1.081398 0.58309913 0.21274619 4278821823
-1.0774295 0.58653712 0.21573728 4278821823
-0.73634893 0.5845409 0.21186097 4278821823
-1.0813406 0.59642768 0.21389529 4278821823
-1.0768116 0.59486413 0.21533459 4278821823
-0.74102378 0.59836495 0.2128621 4278821823
-0.73720169 0.59645718 0.21191591 4278821823
-1.0834512 0.60594088 0.21459153 4278821823
-1.0770485 0.60393441 0.21614704 4278821823
-0.73438191 0.60571355 0.21313611 4278821823
-0.72857887 0.60627759 0.21110724 4278821823
-1.0830489 0.61664498 0.21540087 4278821823
-1.0771124 0.61401373 0.21554796 4278821823
-0.73273027 0.61546248 0.21336219 4278821823
-0.72828186 0.61474419 0.21186003 4278821823
-1.0904598 0.62209117 0.21063562 4278821823
-1.0835676 0.62582397 0.21480091 4278821823
-1.0777553 0.62427402 0.21512456 4278821823
-0.73204601 0.62571758 0.2153067 4278821823
-0.72689033 0.62648916 0.21446289 4278821823
-1.0906051 0.63418019 0.21019967 4278821823
-1.0838983 0.63491845 0.21470781 4278821823
-1.0769442 0.6332103 0.21676677 4278821823
-0.73264909 0.63479912 0.21474665 4278821823
-0.72740519 0.6345228 0.21271999 4278821823
-1.0846422 0.64569378 0.21482047 4278821823
-1.0790725 0.64397639 0.21472454 4278821823
-0.72746044 0.64522558 0.21268661 4278821823
-1.091728 0.65709013 0.2137112 4278821823
-1.0852563 0.65471065 0.21527429 4278821823
-1.0794854 0.65287971 0.21439266 4278821823
-0.72834587 0.6568383 0.21188001 4278821823
-1.0927829 0.66474718 0.21488033 4278821823
-1.0849286 0.66484457 0.21482511 4278821823
-0.72644347 0.66579503 0.21202131 4278821823
-0.71970427 0.66736585 0.21018921 4278821823
-1.0928278 0.67469895 0.21420151 4278821823
-1.08828 0.67350352 0.215271 4278821823
-0.72391903 0.67648518 0.21390721 4278821823
-0.71656018 0.67663872 0.21240935 4278821823
-1.0926191 0.68458414 0.21414429 4278821823
-1.0884278 0.68439901 0.2181617 4278821823
-0.72481191 0.68565726 0.21305728 4278821823
-0.71848792 0.68384409 0.21164769 4278821823
-1.1012678 0.69542855 0.21050276 4278821823
-1.0943856 0.69544297 0.21530703 4278821823
-1.0892487 0.69225305 0.21781486 4278821823
-0.72551674 0.69211352 0.21128103 4278821823
-1.1003438 0.70840275 0.21378651 4278821823
-1.0953529 0.70482039 0.21512142 4278821823
-1.1016632 0.71580881 0.21442108 4278821823
-1.0977371 0.71465462 0.21475375 4278821823
-1.1037874 0.72630787 0.21495447 4278821823
-1.0962423 0.72528976 0.21554931 4278821823
-1.1040204 0.73516285 0.21472144 4278821823
-1.0970694 0.73085612 0.21709687 4278821823
-1.1122243 0.74686629 0.21011102 4278821823
-1.1050596 0.74476933 0.21475638 4278821823
-1.1119015 0.75652128 0.21156739 4278821823
-1.107535 0.75411594 0.21570438 4278821823
-1.1113603 0.76683271 0.21452716 4278821823
-1.1083214 0.76429403 0.216913 4278821823
-1.1122477 0.7751646 0.21454047 4278821823
-1.1091369 0.77406478 0.21646127 4278821823
-1.1135421 0.78565496 0.21516153 4278821823
-1.1088755 0.78228778 0.21801013 4278821823
-1.1201925 0.79677111 0.21480784 4278821823
-1.1161636 0.79464257 0.21491003 4278821823
-1.1217806 0.80328357 0.21466056 4278821823
-1.1167016 0.80477595 0.21376511 4278821823
-1.1227583 0.814619 0.21591912 4278821823
-1.1169305 0.81650978 0.21483698 4278821823
-1.1218897 0.82545805 0.21533932 4278821823
-1.1182132 0.82401872 0.21390961 4278821823
-1.1237034 0.83533072 0.21464783 4278821823
-1.1191447 0.83490777 0.21793145 4278821823
-1.1317387 0.84382999 0.2111209 4278821823
-1.1250117 0.84570169 0.21574384 4278821823
-1.1198624 0.84397703 0.21075474 4278821823
-1.1307271 0.85522604 0.21445891 4278821823
-1.1273389 0.85458553 0.21494415 4278821823
-1.132895 0.86487871 0.21326821 4278821823
-1.1281663 0.86295319 0.21502656 4278821823
-1.1449052 0.87982708 0.21927179 4278821823
-1.1377338 0.87259257 0.21573442 4278821823
-1.1260146 0.87075788 0.21952967 4278821823
-1.148098 0.88441873 0.21965738 4278821823
-0.65787107 0.40898469 0.22660878 4278821823
-0.66087985 0.41644472 0.2258517 4278821823
-0.65839362 0.41515759 0.2267838 4278821823
-0.66059482 0.42683408 0.22918887 4278821823
-0.65759045 0.42477974 0.22596711 4278821823
-0.65692568 0.43389362 0.22579701 4278821823
-0.65459859 0.44466496 0.22554986 4278821823
-0.66059887 0.45840073 0.22611175 4278821823
-0.65603042 0.45588896 0.22627589 4278821823
-0.66113627 0.46802402 0.22164488 4278821823
-0.65602624 0.46511632 0.22662868 4278821823
-0.68085384 0.47997275 0.22405148 4278821823
-0.67524308 0.47921866 0.22345977 4278821823
-0.66350639 0.47680876 0.22658187 4278821823
-0.65867651 0.473728 0.22689305 4278821823
-0.7228964 0.4898237 0.22362266 4278821823
-0.71499717 0.48854309 0.22301558 4278821823
-0.7038219 0.48742548 0.22427356 4278821823
-0.69567549 0.48483652 0.22472021 4278821823
-0.68467546 0.48409218 0.22475561 4278821823
-0.67579222 0.48209053 0.22525704 4278821823
-0.66657412 0.48196205 0.22570112 4278821823
-0.93287903 0.49965397 0.2216576 4278821823
-0.91477978 0.4982875 0.22151935 4278821823
-0.90393758 0.49918234 0.22458272 4278821823
-0.89657742 0.49885082 0.22392814 4278821823
-0.8819297 0.49889511 0.22253834 4278821823
-0.87569094 0.4992097 0.22258535 4278821823
-0.86465442 0.49897519 0.22514687 4278821823
-0.85372651 0.49851304 0.22345054 4278821823
-0.84508026 0.49818552 0.22383839 4278821823
-0.83285612 0.49829578 0.22473133 4278821823
-0.8249408 0.49790889 0.22427872 4278821823
-0.81543642 0.49678522 0.2245729 4278821823
-0.80542862 0.49553615 0.22431205 4278821823
-0.79515707 0.49497318 0.22519103 4278821823
-0.78618681 0.49482906 0.22455728 4278821823
-0.77517629 0.49661011 0.22528568 4278821823
-0.76450646 0.497071 0.22572175 4278821823
-0.75507307 0.49677616 0.2247341 4278821823
-0.74581695 0.49541736 0.22401161 4278821823
-0.7352109 0.49437982 0.22550589 4278821823
-0.72511691 0.49301344 0.22488825 4278821823
-0.71657228 0.49050373 0.22612648 4278821823
-0.7056371 0.49085283 0.22448249 4278821823
-1.1343806 0.50782043 0.22105384 4278821823
-1.1229062 0.50916761 0.22370094 4278821823
-1.1142046 0.50788331 0.22440502 4278821823
-1.1048244 0.50747752 0.22520682 4278821823
-1.094034 0.50831044 0.22694257 4278821823
-1.0836282 0.5078851 0.22466557 4278821823
-1.0728308 0.50863028 0.22510096 4278821823
-1.064773 0.50644463 0.22420456 4278821823
-1.0545983 0.50503266 0.22468649 4278821823
-1.0453221 0.50560111 0.22522965 4278821823
-1.0340741 0.50694191 0.22496778 4278821823
-1.0252984 0.50586665 0.22461888 4278821823
-1.0152327 0.50597286 0.22482648 4278821823
-1.0065881 0.50586939 0.22445898 4278821823
-0.99468064 0.50733423 0.22553024 4278821823
-0.98599374 0.50573903 0.22513774 4278821823
-0.97445905 0.50511003 0.22489262 4278821823
-0.96476829 0.50425828 0.22480819 4278821823
-0.95473981 0.50443679 0.22456652 4278821823
-0.94509053 0.50444001 0.22388613 4278821823
-0.9358446 0.50520504 0.22511569 4278821823
-0.92416894 0.50510418 0.22553346 4278821823
-0.91532546 0.50399256 0.2261225 4278821823
-0.90570331 0.5023759 0.22646114 4278821823
-0.89520895 0.50457108 0.22630629 4278821823
-0.88474482 0.50240517 0.22595875 4278821823
-0.87546492 0.5012939 0.22656094 4278821823
-0.86512744 0.50068539 0.22447221 4278821823
-0.85439414 0.50055921 0.22495419 4278821823
-0.84514654 0.50109959 0.22467728 4278821823
-0.83333588 0.5012725 0.22436666 4278821823
-0.82778203 0.50106919 0.22560981 4278821823
-0.81103319 0.50002515 0.22255045 4278821823
-0.80408514 0.5010314 0.22865278 4278821823
-0.7642045 0.50054038 0.22364077 4278821823
-0.75368607 0.5031625 0.220521 4278821823
-0.7465868 0.50290805 0.22102979 4278821823
-1.1307045 0.51210928 0.22909318 4278821823
-1.125026 0.51207083 0.22771515 4278821823
-1.1133338 0.5108853 0.22814614 4278821823
-1.0557287 0.51034462 0.22986886 4278821823
-1.0810118 0.56714457 0.22534442 4278821823
-1.0777684 0.5670765 0.22718063 4278821823
-1.0809206 0.57494831 0.2260616 4278821823
-1.076627 0.57664132 0.22404332 4278821823
-1.0644517 0.57529789 0.22676943 4278821823
-1.0810854 0.583588 0.22493915 4278821823
-1.0754132 0.58605516 0.22524461 4278821823
-1.0697325 0.58448118 0.22729155 4278821823
-1.080792 0.59210116 0.22952968 4278821823
-1.0749352 0.59592628 0.22452962 4278821823
-1.0688237 0.59658796 0.22832137 4278821823
-1.0813692 0.60533577 0.22115976 4278821823
-1.0750397 0.60437107 0.22509743 4278821823
-1.0818882 0.61699533 0.22475494 4278821823
-1.0767355 0.61314285 0.22596359 4278821823
-1.0827258 0.62545133 0.22503109 4278821823
-1.0770938 0.62603503 0.22371581 4278821823
-1.0830806 0.63533098 0.22573648 4278821823
-1.0769343 0.63367403 0.22520632 4278821823
-1.0834407 0.64582622 0.22548556 4278821823
-1.0777776 0.64372331 0.22480401 4278821823
-1.0839195 0.65538418 0.22523338 4278821823
-1.0794824 0.65230644 0.22231747 4278821823
-1.0914762 0.66484892 0.22212216 4278821823
-1.086332 0.66449171 0.22561207 4278821823
-1.0904437 0.67520648 0.22328694 4278821823
-1.0870116 0.67512131 0.22601518 4278821823
-1.0916564 0.68692762 0.2234108 4278821823
-1.0871562 0.68456709 0.22603893 4278821823
-1.093164 0.69485343 0.22564252 4278821823
-1.0889956 0.69452119 0.22473273 4278821823
-1.0955919 0.70511341 0.22482169 4278821823
-1.1021513 0.7157892 0.22450735 4278821823
-1.0970173 0.71378458 0.22411998 4278821823
-1.1027814 0.72511238 0.22436112 4278821823
-1.0969675 0.7250222 0.22670159 4278821823
-1.1015159 0.73635834 0.22503635 4278821823
-1.0978842 0.73541838 0.22566125 4278821823
-1.1036602 0.74589801 0.22539726 4278821823
-1.0982435 0.7433486 0.22304499 4278821823
-1.1067147 0.75510728 0.22459286 4278821823
-1.1110702 0.76424015 0.22313558 4278821823
-1.10818 0.76425856 0.22533405 4278821823
-1.1106828 0.77651501 0.22330204 4278821823
-1.1080492 0.77447134 0.22573714 4278821823
-1.111744 0.78536481 0.22472635 4278821823
-1.1087441 0.78315616 0.22583026 4278821823
-1.1132209 0.79541516 0.22379044 4278821823
-1.1081923 0.79398906 0.22698814 4278821823
-1.1211331 0.80700082 0.22265239 4278821823
-1.1143835 0.80497527 0.22542033 4278821823
-1.1090032 0.80258137 0.22741103 4278821823
-1.1222329 0.8165133 0.22672421 4278821823
-1.1169267 0.8171767 0.226835 4278821823
-1.1211739 0.82589251 0.22548383 4278821823
-1.1183063 0.82520461 0.22514293 4278821823
-1.1223693 0.83532524 0.22452134 4278821823
-1.1187683 0.8331995 0.224877 4278821823
-1.1248815 0.84509134 0.22397304 4278821823
-1.1177263 0.84487325 0.22936513 4278821823
-1.1323929 0.85601014 0.22349444 4278821823
-1.1253171 0.85411495 0.22544485 4278821823
-1.1193839 0.85005021 0.22739802 4278821823
-1.132996 0.86567163 0.22571583 4278821823
-1.1264023 0.86379087 0.22351262 4278821823
-1.1190468 0.86348802 0.22410329 4278821823
-1.1433637 0.87749708 0.22623412 4278821823
-1.1371442 0.87484509 0.22377008 4278821823
-1.1277344 0.87079436 0.22107492 4278821823
-1.1474341 0.88320267 0.22580226 4278821823
-0.65670311 0.39711183 0.23836116 4278821823
-0.65660316 0.40507227 0.23513576 4278821823
-0.66087931 0.41557023 0.23097393 4278821823
-0.65464443 0.41262007 0.2366955 4278821823
-0.64425218 0.41984245 0.23961613 4278821823
-0.66126817 0.42398381 0.23171952 4278821823
-0.65646583 0.42478418 0.23586792 4278821823
-0.64662105 0.42538473 0.23863412 4278821823
-0.65567738 0.43597662 0.23535037 4278821823
-0.64814526 0.43452135 0.23671776 4278821823
-0.65249425 0.44663489 0.23476082 4278821823
-0.6485939 0.44449201 0.23528109 4278821823
-0.65276051 0.45594591 0.23329279 4278821823
-0.64719188 0.45546442 0.23680739 4278821823
-0.65444982 0.46708959 0.23339909 4278821823
-0.64769363 0.46484458 0.23652735 4278821823
-0.67150354 0.47915655 0.23399314 4278821823
-0.66419113 0.47634748 0.23453951 4278821823
-0.65633106 0.4722833 0.23577221 4278821823
-0.64816451 0.47085512 0.23893522 4278821823
-0.70402163 0.48957449 0.23500001 4278821823
-0.69552451 0.48750591 0.23312825 4278821823
-0.68474156 0.48687518 0.23586464 4278821823
-0.67462647 0.48347071 0.23511201 4278821823
-0.66853702 0.48124844 0.23721986 4278821823
-0.85788476 0.49996346 0.23031799 4278821823
-0.83312321 0.49929905 0.23540854 4278821823
-0.82514679 0.49879646 0.23486908 4278821823
-0.81640399 0.49795908 0.23280594 4278821823
-0.80655104 0.4977679 0.23355839 4278821823
-0.79487914 0.49835539 0.23367408 4278821823
-0.78397697 0.49815941 0.234705 4278821823
-0.7754097 0.49781081 0.23505458 4278821823
-0.7651484 0.49791807 0.23539922 4278821823
-0.75491685 0.49726975 0.23497291 4278821823
-0.74450356 0.49649733 0.23507497 4278821823
-0.73475659 0.49530602 0.23479134 4278821823
-0.72533613 0.49331456 0.23532975 4278821823
-0.71562719 0.49163377 0.23494531 4278821823
-0.70673662 0.49169874 0.23557067 4278821823
-0.69690704 0.49055284 0.23739973 4278821823
-0.68672407 0.49130169 0.23993318 4278821823
-1.1113764 0.50795317 0.23087341 4278821823
-1.1039562 0.50828445 0.23266804 4278821823
-1.0944573 0.50861609 0.23462428 4278821823
-1.082854 0.50972211 0.23492283 4278821823
-1.0763605 0.50983906 0.23365021 4278821823
-1.0664027 0.50894558 0.23327196 4278821823
-1.0550058 0.50753945 0.23434527 4278821823
-1.0463238 0.50727475 0.23324725 4278821823
-1.0317796 0.50829238 0.23456717 4278821823
-1.0247359 0.50812507 0.23281536 4278821823
-1.0147313 0.50804687 0.23443538 4278821823
-1.0030007 0.50838596 0.2333671 4278821823
-0.99510664 0.50850636 0.23495287 4278821823
-0.98548353 0.5079819 0.23449841 4278821823
-0.97500741 0.50718784 0.2346894 4278821823
-0.96519601 0.5059101 0.23376775 4278821823
-0.9545927 0.50619 0.23452413 4278821823
-0.94413376 0.50760138 0.23604491 4278821823
-0.93600035 0.5082109 0.234914 4278821823
-0.92340815 0.50840414 0.23545907 4278821823
-0.91494775 0.50732762 0.2350228 4278821823
-0.90323317 0.50652337 0.23623562 4278821823
-0.8951906 0.50546932 0.2345099 4278821823
-0.88473713 0.50610805 0.2353607 4278821823
-0.87371039 0.50534314 0.2356731 4278821823
-0.86543536 0.50320637 0.23537292 4278821823
-0.85409319 0.50321865 0.23540699 4278821823
-0.84467691 0.50324309 0.23537472 4278821823
-0.83550298 0.50309879 0.23562473 4278821823
-0.8230412 0.5013988 0.23689747 4278821823
-0.81456184 0.50134081 0.23724094 4278821823
-0.80551422 0.50145185 0.23677446 4278821823
-0.79727155 0.50169253 0.23814091 4278821823
-0.78396821 0.50092447 0.2377914 4278821823
-0.77154434 0.50060797 0.23853824 4278821823
-0.76909161 0.50055599 0.23633453 4278821823
-1.1222252 0.51506394 0.23599547 4278821823
-1.1128246 0.51435852 0.23393723 4278821823
-1.1063981 0.51258904 0.23581421 4278821823
-1.095202 0.51191396 0.23906115 4278821823
-1.084021 0.51226676 0.23705806 4278821823
-1.0732765 0.51078695 0.23656873 4278821823
-1.0634675 0.51180267 0.23766333 4278821823
-1.055568 0.51113808 0.23485753 4278821823
-1.0444338 0.51136106 0.23739378 4278821823
-1.0348446 0.51149672 0.23573026 4278821823
-1.0253317 0.51204288 0.23726174 4278821823
-1.0159173 0.51140231 0.23741338 4278821823
-1.0014709 0.51136786 0.23907119 4278821823
-0.99871147 0.51140237 0.23636098 4278821823
-0.98017567 0.51209563 0.23984759 4278821823
-0.9705959 0.51024473 0.2399061 4278821823
-0.96527302 0.51039183 0.23872781 4278821823
-0.95995694 0.51053917 0.23755564 4278821823
-0.93107551 0.51163095 0.23918112 4278821823
-0.92494851 0.51170111 0.23606102 4278821823
-0.91594136 0.5111745 0.2370116 4278821823
-1.081632 0.56570286 0.23508559 4278821823
-1.0757917 0.56912678 0.23626219 4278821823
-1.0811059 0.57710183 0.23234138 4278821823
-1.0748531 0.57566625 0.23438451 4278821823
-1.0662307 0.57801265 0.23552319 4278821823
-1.0538908 0.57646596 0.23698696 4278821823
-1.0811337 0.58545834 0.23178779 4278821823
-1.0741988 0.58479249 0.23576221 4278821823
-1.0685867 0.58598351 0.23438723 4278821823
-1.0735716 0.59454942 0.23378223 4278821823
-1.0678002 0.59540492 0.23485486 4278821823
-1.0744736 0.60535157 0.23540075 4278821823
-1.0681362 0.6032511 0.23431709 4278821823
-1.0821333 0.61649102 0.23539507 4278821823
-1.0765139 0.61359066 0.23486014 4278821823
-1.0825518 0.62559175 0.23469795 4278821823
-1.07759 0.62614644 0.23571348 4278821823
-1.0815505 0.63750297 0.23728949 4278821823
-1.0765407 0.63572907 0.23742279 4278821823
-1.0827868 0.64550483 0.23597685 4278821823
-1.0764999 0.64361936 0.23367341 4278821823
-1.0831516 0.65558505 0.23476687 4278821823
-1.0788665 0.65436882 0.23642567 4278821823
-1.0910014 0.66289598 0.23962952 4278821823
-1.0860779 0.66483879 0.23499715 4278821823
-1.091208 0.67596656 0.23607039 4278821823
-1.0870992 0.67573023 0.23458445 4278821823
-1.0925409 0.68557441 0.23458622 4278821823
-1.0884981 0.68357641 0.23349887 4278821823
-1.0944313 0.69392556 0.23415008 4278821823
-1.0886371 0.69824708 0.23886308 4278821823
-1.1000562 0.70994085 0.23138523 4278821823
-1.0933228 0.70486915 0.23456147 4278821823
-1.0892092 0.70412272 0.23593177 4278821823
-1.1006539 0.7151674 0.23219632 4278821823
-1.0945395 0.71517134 0.23555444 4278821823
-1.0887564 0.71184897 0.23393738 4278821823
-1.1015905 0.72491604 0.23615554 4278821823
-1.0970938 0.72440207 0.23509178 4278821823
-1.1025872 0.73534864 0.23509087 4278821823
-1.0973357 0.73412967 0.2338865 4278821823
-1.1029621 0.74604189 0.23530509 4278821823
-1.0983121 0.74358153 0.23522088 4278821823
-1.1103573 0.75705183 0.23179215 4278821823
-1.1057457 0.75481439 0.23493117 4278821823
-1.1108519 0.7630285 0.23124912 4278821823
-1.1063418 0.76501858 0.23478147 4278821823
-1.1110468 0.77852982 0.23578146 4278821823
-1.10612 0.77445257 0.23557547 4278821823
-1.1123626 0.78563917 0.23557347 4278821823
-1.1089633 0.78327036 0.23492575 4278821823
-1.1127251 0.79480743 0.23596665 4278821823
-1.1083438 0.79593289 0.23303545 4278821823
-1.1206377 0.80864054 0.23521665 4278821823
-1.113879 0.80471653 0.23415618 4278821823
-1.1093867 0.80161095 0.2350004 4278821823
-1.1216651 0.81532443 0.23372269 4278821823
-1.1166017 0.81433213 0.23545238 4278821823
-1.1214483 0.82434869 0.23578393 4278821823
-1.1173859 0.82490861 0.23435703 4278821823
-1.1310314 0.8386085 0.23932868 4278821823
-1.1248474 0.83541965 0.23519464 4278821823
-1.1171649 0.83351719 0.232629 4278821823
-1.1311896 0.84206486 0.23743053 4278821823
-1.1269561 0.84510803 0.23465849 4278821823
-1.1185188 0.84334755 0.23111419 4278821823
-1.1313947 0.85818887 0.23564339 4278821823
-1.1262087 0.8544721 0.23502694 4278821823
-1.1348497 0.86527634 0.23520179 4278821823
-1.1289197 0.86204416 0.23347078 4278821823
-1.1431588 0.87703711 0.23591812 4278821823
-1.1370302 0.87269956 0.23327892 4278821823
-1.1503763 0.88499969 0.23443146 4278821823
-1.1463486 0.88295585 0.23442881 4278821823
-0.66301751 0.38707563 0.24670593 4278821823
-0.66242176 0.39473808 0.24425186 4278821823
-0.65895522 0.39796403 0.24105316 4278821823
-0.64836931 0.39971197 0.2419253 4278821823
-0.66266298 0.40109715 0.24837786 4278821823
-0.65787828 0.40623501 0.24401188 4278821823
-0.64728844 0.40501812 0.24507496 4278821823
-0.65499026 0.41510037 0.24526344 4278821823
-0.64694446 0.41519105 0.24500221 4278821823
-0.65331894 0.42510164 0.24464263 4278821823
-0.6463564 0.42418101 0.24516068 4278821823
-0.65104008 0.43554544 0.24408846 4278821823
-0.64584881 0.4353838 0.24670467 4278821823
-0.65149671 0.44531783 0.24514125 4278821823
-0.64586234 0.44499117 0.24639073 4278821823
-0.63926649 0.44161886 0.24762249 4278821823
-0.65212208 0.4547469 0.24581261 4278821823
-0.64770496 0.45432621 0.24395187 4278821823
-0.65270734 0.4665314 0.24465741 4278821823
-0.64754248 0.46445996 0.24414963 4278821823
-0.67095804 0.47891319 0.24394836 4278821823
-0.66248095 0.47750041 0.24475914 4278821823
-0.65615422 0.47384119 0.24580266 4278821823
-0.64951247 0.47173539 0.24377306 4278821823
-0.70088732 0.48798239 0.24070135 4278821823
-0.69102556 0.48934755 0.24604635 4278821823
-0.68450081 0.48823714 0.24497658 4278821823
-0.67528903 0.48443279 0.24462165 4278821823
-0.66609323 0.48184282 0.24613202 4278821823
-0.84236962 0.49925551 0.24596451 4278821823
-0.83559537 0.49946609 0.24176554 4278821823
-0.82887733 0.4998019 0.24007611 4278821823
-0.79923135 0.49916056 0.24039191 4278821823
-0.78130758 0.49984574 0.24040391 4278821823
-0.77344763 0.4986895 0.24406795 4278821823
-0.76476562 0.49897587 0.24322149 4278821823
-0.75535029 0.49812156 0.24401563 4278821823
-0.74464929 0.49704361 0.24425739 4278821823
-0.73481333 0.49600923 0.24389803 4278821823
-0.72429752 0.49578491 0.2455726 4278821823
-0.71567929 0.49474862 0.24553868 4278821823
-0.70442998 0.49352062 0.24510869 4278821823
-0.69495583 0.49206209 0.24607274 4278821823
-0.68865478 0.49089551 0.24470682 4278821823
-1.1041689 0.50935239 0.24451682 4278821823
-1.0966722 0.50934374 0.24221504 4278821823
-1.0861366 0.50976676 0.24060467 4278821823
-1.0454618 0.50956666 0.24356562 4278821823
-1.038564 0.5098213 0.24124339 4278821823
-1.023751 0.50814676 0.24145633 4278821823
-1.0187643 0.508403 0.24099582 4278821823
-1.0035082 0.50896043 0.24248652 4278821823
-0.99658173 0.50867116 0.24269444 4278821823
-0.98491704 0.50775003 0.24481094 4278821823
-0.97687924 0.50786769 0.24297626 4278821823
-0.96537769 0.5085566 0.24425471 4278821823
-0.95455253 0.50913727 0.24398063 4278821823
-0.94645321 0.50874496 0.24259527 4278821823
-0.93577242 0.50868684 0.24357194 4278821823
-0.9235729 0.50850713 0.2441363 4278821823
-0.91504514 0.50857115 0.24500084 4278821823
-0.90555167 0.5075891 0.24465559 4278821823
-0.89513361 0.50722826 0.24500784 4278821823
-0.88436079 0.50778431 0.24511003 4278821823
-0.87464875 0.50748557 0.2454531 4278821823
-0.86572516 0.50528884 0.2450546 4278821823
-0.85551649 0.50475526 0.24504633 4278821823
-0.84739876 0.50395191 0.24456635 4278821823
-0.83526427 0.50458485 0.24455877 4278821823
-0.8253963 0.50374544 0.24471837 4278821823
-0.81557798 0.50318563 0.24512109 4278821823
-0.80419993 0.50375825 0.24502495 4278821823
-0.79447824 0.50365728 0.24573287 4278821823
-0.78460771 0.50254548 0.24525923 4278821823
-0.77541178 0.50164258 0.24563587 4278821823
-0.76588488 0.50129956 0.24500068 4278821823
-0.75578523 0.50113904 0.24897905 4278821823
-0.74588835 0.50044656 0.2478805 4278821823
-0.72326362 0.50173467 0.24813148 4278821823
-1.1238956 0.51620126 0.24582516 4278821823
-1.1142305 0.51473773 0.24469134 4278821823
-1.1048052 0.5136742 0.24481308 4278821823
-1.0954505 0.5132913 0.24455547 4278821823
-1.0858183 0.5128324 0.24635614 4278821823
-1.0751727 0.513008 0.24480563 4278821823
-1.0631766 0.51443863 0.24589434 4278821823
-1.0547469 0.51341116 0.24532932 4278821823
-1.046262 0.51309311 0.24705343 4278821823
-1.0347931 0.51245189 0.24530238 4278821823
-1.0256557 0.51227725 0.24598438 4278821823
-1.0174841 0.51122046 0.24594229 4278821823
-1.0056086 0.51125288 0.24552934 4278821823
-0.99347234 0.51097453 0.24736485 4278821823
-0.9853856 0.51256597 0.24428667 4278821823
-0.97446811 0.51363122 0.24569874 4278821823
-0.96617806 0.51175237 0.24676827 4278821823
-0.95563966 0.51172686 0.24748783 4278821823
-0.94452703 0.51097041 0.2480953 4278821823
-0.93522334 0.51077527 0.24630494 4278821823
-0.92567003 0.51102555 0.24637315 4278821823
-0.91651154 0.5104509 0.24179746 4278821823
-1.0738816 0.56874943 0.24522951 4278821823
-1.0720726 0.57573169 0.24502105 4278821823
-1.069212 0.57752937 0.24493495 4278821823
-1.0525787 0.57609522 0.24134758 4278821823
-1.072654 0.58448315 0.2462849 4278821823
-1.068022 0.58415705 0.24687201 4278821823
-1.081574 0.59943795 0.24949749 4278821823
-1.0759603 0.5950402 0.24544032 4278821823
-1.0646311 0.59526807 0.2443119 4278821823
-1.0809335 0.60421509 0.24570143 4278821823
-1.0757302 0.60494268 0.24412099 4278821823
-1.0658479 0.60226101 0.24557281 4278821823
-1.080995 0.6163491 0.2433397 4278821823
-1.0775168 0.61432391 0.24539843 4278821823
-1.0817082 0.62673986 0.24502526 4278821823
-1.0775621 0.6250056 0.24533881 4278821823
-1.0827653 0.6364702 0.24694993 4278821823
-1.078064 0.63397813 0.24331684 4278821823
-1.0839999 0.64528322 0.24496925 4278821823
-1.0785968 0.64530504 0.24208555 4278821823
-1.0844523 0.65442872 0.24506766 4278821823
-1.0791475 0.6548304 0.24325411 4278821823
-1.0913439 0.66497844 0.24610037 4278821823
-1.0841889 0.66517621 0.24479862 4278821823
-1.0786996 0.66474026 0.246905 4278821823
-1.0910217 0.67729545 0.24508445 4278821823
-1.0850122 0.67477143 0.24474829 4278821823
-1.0781872 0.67473614 0.24719037 4278821823
-1.091882 0.68744743 0.24477676 4278821823
-1.0868654 0.68440974 0.24552411 4278821823
-1.0912292 0.69505715 0.24419084 4278821823
-1.088324 0.69471049 0.24548689 4278821823
-1.091567 0.707174 0.2443482 4278821823
-1.0885726 0.70379579 0.24483934 4278821823
-1.1000664 0.71800232 0.24109161 4278821823
-1.0946219 0.71514952 0.2449988 4278821823
-1.0887285 0.710365 0.24591959 4278821823
-1.10092 0.72646773 0.24464497 4278821823
-1.097424 0.72471929 0.24518299 4278821823
-1.1015669 0.73246664 0.24150506 4278821823
-1.0957847 0.73631942 0.24642301 4278821823
-1.1102853 0.74955368 0.24619049 4278821823
-1.1021968 0.74622262 0.24461272 4278821823
-1.0970018 0.74473798 0.2455465 4278821823
-1.1124086 0.75653046 0.24411742 4278821823
-1.1031283 0.7553972 0.24471691 4278821823
-1.0981579 0.75327373 0.24624923 4278821823
-1.1042855 0.76493305 0.24493784 4278821823
-1.1055355 0.7749778 0.24493065 4278821823
-1.1118081 0.78725386 0.24216875 4278821823
-1.1072232 0.78419137 0.24633081 4278821823
-1.1132309 0.79501206 0.24435993 4278821823
-1.1089573 0.79467613 0.24522284 4278821823
-1.1138606 0.80541873 0.24324453 4278821823
-1.107747 0.80273259 0.24246353 4278821823
-1.1214215 0.81634432 0.24486814 4278821823
-1.1163368 0.81311095 0.24298969 4278821823
-1.1235831 0.82518446 0.2452309 4278821823
-1.119903 0.82043028 0.24686298 4278821823
-1.1255989 0.83563846 0.24555215 4278821823
-1.126407 0.84545976 0.24466304 4278821823
-1.1307745 0.85704827 0.24330351 4278821823
-1.127035 0.85485464 0.24524562 4278821823
-1.1328701 0.86529064 0.24530777 4278821823
-1.1286784 0.86263007 0.24705082 4278821823
-1.1430678 0.87693369 0.24438863 4278821823
-1.1356213 0.87268668 0.24602549 4278821823
-1.145824 0.88299328 0.24422184 4278821823
-0.66262472 0.38816652 0.25340739 4278821823
