# .PCD v0.7 - Point Cloud Data file format
VERSION 0.7
FIELDS x y z rgba
SIZE 4 4 4 4
TYPE F F F U
COUNT 1 1 1 1
WIDTH 1072
HEIGHT 1
VIEWPOINT 0 0 0 1 0 0 0
POINTS 1072
DATA ascii
-1.023526 0.51882279 0.26552081 4283471483
-1.0154197 0.51916724 0.26510301 4283471483
-1.0057766 0.51882732 0.26473582 4283471483
-0.99634814 0.51684952 0.26515505 4283471483
-0.9850359 0.51574671 0.26618326 4283471483
-0.97435892 0.51585346 0.26457027 4283471483
-0.96511495 0.51510829 0.26380986 4283471483
-0.95400566 0.51699466 0.26514259 4283471483
-0.94589508 0.5161773 0.26476768 4283471483
-0.93482941 0.5177834 0.26546502 4283471483
-0.92472363 0.51711464 0.26627848 4283471483
-0.91412562 0.51543093 0.26581728 4283471483
-0.90502203 0.51468033 0.26436847 4283471483
-0.89528656 0.51512194 0.26496932 4283471483
-0.88576114 0.51379257 0.26508853 4283471483
-0.87524515 0.51174515 0.2661455 4283471483
-0.86638957 0.51075536 0.26487523 4283471483
-0.85492003 0.51210189 0.26760978 4283471483
-0.8440268 0.51288331 0.2648679 4283471483
-0.83434534 0.51269603 0.26673853 4283471483
-0.82523549 0.51050591 0.26728594 4283471483
-0.81500226 0.51049632 0.26430097 4283471483
-0.80683249 0.51137638 0.26753923 4283471483
-0.7462877 0.51030463 0.26943189 4283471483
-1.0729256 0.52161354 0.26595488 4283471483
-1.0655142 0.52181959 0.26542214 4283471483
-1.0552585 0.52209073 0.26613662 4283471483
-1.0456707 0.52099913 0.26643318 4283471483
-1.0380788 0.52032828 0.26675689 4283471483
-0.6581192 0.39687273 0.27125633 4283471483
-0.65468425 0.40587586 0.27567339 4283471483
-0.65374756 0.41458035 0.27454835 4283471483
-0.65128368 0.42413464 0.27601632 4283471483
-0.64944142 0.42720303 0.27368295 4283471483
-0.65066546 0.43555662 0.2762388 4283471483
-0.64868826 0.43474713 0.27415389 4283471483
-0.65139264 0.44567585 0.27539068 4283471483
-0.64911807 0.44370124 0.27237466 4283471483
-0.6539951 0.45538607 0.27414244 4283471483
-0.64991421 0.45055324 0.27907646 4283471483
-0.6606788 0.46793023 0.27318931 4283471483
-0.6563307 0.46496701 0.27524364 4283471483
-0.67111617 0.47889891 0.27332699 4283471483
-0.6642251 0.47547847 0.27459428 4283471483
-0.65934068 0.47281694 0.27724886 4283471483
-0.68322361 0.48754609 0.27523941 4283471483
-0.67565256 0.48362756 0.27435443 4283471483
-0.66736805 0.48054814 0.27786696 4283471483
-0.71458769 0.49745172 0.27510253 4283471483
-0.70551383 0.49569008 0.27506346 4283471483
-0.69440699 0.49392414 0.27500299 4283471483
-0.68692583 0.49095106 0.27388361 4283471483
-0.82432127 0.50876814 0.27492595 4283471483
-0.8165583 0.50950778 0.27565703 4283471483
-0.80613321 0.50991857 0.27594295 4283471483
-0.79525918 0.50804859 0.27180976 4283471483
-0.78165144 0.50833809 0.27431098 4283471483
-0.77478814 0.50852334 0.27366611 4283471483
-0.76410484 0.50796294 0.27450359 4283471483
-0.75451207 0.50788343 0.2753104 4283471483
-0.74570721 0.5061419 0.27383447 4283471483
-0.73650438 0.50386071 0.2744076 4283471483
-0.72429878 0.50366431 0.27546561 4283471483
-0.71783727 0.50142658 0.27426597 4283471483
-1.0647048 0.51930928 0.27536863 4283471483
-1.056547 0.51813418 0.27753049 4283471483
-1.0358163 0.51863641 0.2726315 4283471483
-1.0243838 0.51930535 0.27232823 4283471483
-1.0154768 0.51976937 0.27446795 4283471483
-1.0013005 0.51782101 0.27039644 4283471483
-0.99431241 0.51848656 0.27544788 4283471483
-0.98505497 0.51771039 0.27556881 4283471483
-0.97674513 0.5161854 0.27434888 4283471483
-0.96270514 0.51910925 0.27625033 4283471483
-0.95499432 0.51809245 0.27502471 4283471483
-0.94487691 0.51829511 0.2748436 4283471483
-0.93582678 0.51770842 0.2758624 4283471483
-0.92518067 0.51793331 0.27541664 4283471483
-0.91468465 0.51673782 0.27532226 4283471483
-0.90592414 0.51433396 0.27533752 4283471483
-0.89551747 0.51434278 0.27455389 4283471483
-0.88558602 0.51407856 0.27503225 4283471483
-0.8745507 0.51426369 0.27534044 4283471483
-0.8655194 0.51329786 0.27587566 4283471483
-0.85529262 0.5133394 0.27505404 4283471483
-0.84419549 0.51394212 0.275305 4283471483
-0.834764 0.51229048 0.27440545 4283471483
-0.82621574 0.51055962 0.27318335 4283471483
-0.80552518 0.51169616 0.27479774 4283471483
-0.79606712 0.51175714 0.27694038 4283471483
-0.78497016 0.51088828 0.2767055 4283471483
-0.77729177 0.51142466 0.27883828 4283471483
-0.76218617 0.51014632 0.2780031 4283471483
-0.74786818 0.51033813 0.27085194 4283471483
-1.0749693 0.52180403 0.2750991 4283471483
-1.0649896 0.5215891 0.27577564 4283471483
-1.0556706 0.52095991 0.2735714 4283471483
-1.0464331 0.52104986 0.27389711 4283471483
-1.0378039 0.52109748 0.27520975 4283471483
-1.0251851 0.52188706 0.27812642 4283471483
-1.0118084 0.52017891 0.27840239 4283471483
-1.0052334 0.52020746 0.27490142 4283471483
-0.99712199 0.5216347 0.27762347 4283471483
-0.95488274 0.52022362 0.27780914 4283471483
-0.65555161 0.40663424 0.28162384 4283471483
-0.6532408 0.41569567 0.28546235 4283471483
-0.65171111 0.42553008 0.28552905 4283471483
-0.64969563 0.42562556 0.28505284 4283471483
-0.65132189 0.4344272 0.28334141 4283471483
-0.64939892 0.43547067 0.28451258 4283471483
-0.65060973 0.44540074 0.28115949 4283471483
-0.64779413 0.44612616 0.28697783 4283471483
-0.65220654 0.45685098 0.28644949 4283471483
-0.64902866 0.45381558 0.28459513 4283471483
-0.66033745 0.46727109 0.28793317 4283471483
-0.65638083 0.46464425 0.28462476 4283471483
-0.6702202 0.47928831 0.28887513 4283471483
-0.66419262 0.47519994 0.28495172 4283471483
-0.65876359 0.47177914 0.28346613 4283471483
-0.68282175 0.48872748 0.28345048 4283471483
-0.67469984 0.48548537 0.28553295 4283471483
-0.6683234 0.48230138 0.28375787 4283471483
-0.72211504 0.49946356 0.28942358 4283471483
-0.71432841 0.49887019 0.28392455 4283471483
-0.70424837 0.4981865 0.28565514 4283471483
-0.69515431 0.49575543 0.2845839 4283471483
-0.68607157 0.49197367 0.28584698 4283471483
-0.81732589 0.50977153 0.2802113 4283471483
-0.79474449 0.50925148 0.28776377 4283471483
-0.78533006 0.50948262 0.2847932 4283471483
-0.77770853 0.50968021 0.28240675 4283471483
-0.76170921 0.5089131 0.2864587 4283471483
-0.75525039 0.50833488 0.28458017 4283471483
-0.74462342 0.50726599 0.28446704 4283471483
-0.73492515 0.50519776 0.28554606 4283471483
-0.72491944 0.50259483 0.28420967 4283471483
-0.71740848 0.5014661 0.28620017 4283471483
-0.70802444 0.50043988 0.28799915 4283471483
-1.0528286 0.51846755 0.28147042 4283471483
-1.0037633 0.51891327 0.28702635 4283471483
-0.99534404 0.51868922 0.28537083 4283471483
-0.98598516 0.51816112 0.28460735 4283471483
-0.97472113 0.51824951 0.28464648 4283471483
-0.96808529 0.51989526 0.2825222 4283471483
-0.95414627 0.51844478 0.28211176 4283471483
-0.94416165 0.51884067 0.28306165 4283471483
-0.93506354 0.51867747 0.28494456 4283471483
-0.9253962 0.51769841 0.28484097 4283471483
-0.91532707 0.51681501 0.28481022 4283471483
-0.9050771 0.51567352 0.2846871 4283471483
-0.8956635 0.51397824 0.28438947 4283471483
-0.88499188 0.51441264 0.28577811 4283471483
-0.87498909 0.5152759 0.28465775 4283471483
-0.86473674 0.51590383 0.28520003 4283471483
-0.85505402 0.51495594 0.28499946 4283471483
-0.84466255 0.51374209 0.28500172 4283471483
-0.83539939 0.51247978 0.28471813 4283471483
-0.82534444 0.51256317 0.2852217 4283471483
-0.81465477 0.51129842 0.28511894 4283471483
-0.80451751 0.51065707 0.28551495 4283471483
-0.79441774 0.51142579 0.28371969 4283471483
-0.78557462 0.51090288 0.28372574 4283471483
-0.77612722 0.51020074 0.28766781 4283471483
-0.7642557 0.51231712 0.28515089 4283471483
-1.0753118 0.52330774 0.28488156 4283471483
-1.0662221 0.52196211 0.28481853 4283471483
-1.0570091 0.520818 0.28532574 4283471483
-1.0442168 0.52174026 0.28641844 4283471483
-1.0351224 0.52186632 0.28343147 4283471483
-1.0251513 0.52262419 0.28515798 4283471483
-1.0152392 0.52243692 0.28541461 4283471483
-1.0052798 0.52180851 0.28495252 4283471483
-0.9982453 0.52091503 0.28064415 4283471483
-0.9741956 0.52002478 0.28801212 4283471483
-0.96357745 0.52040797 0.28562123 4283471483
-0.95583653 0.52073687 0.28551486 4283471483
-0.94448912 0.52125072 0.287283 4283471483
-0.92157036 0.52037793 0.28962529 4283471483
-0.65521973 0.41769835 0.29592779 4283471483
-0.65326554 0.4241153 0.29514045 4283471483
-0.65082675 0.43458217 0.29702803 4283471483
-0.64884144 0.43572733 0.2939423 4283471483
-0.65094382 0.44597742 0.29501718 4283471483
-0.64859116 0.44496197 0.29393634 4283471483
-0.65225178 0.4558529 0.29540896 4283471483
-0.64948052 0.45309711 0.29699951 4283471483
-0.65648824 0.4648234 0.29513502 4283471483
-0.66372204 0.4754819 0.29436648 4283471483
-0.65859157 0.47243172 0.29625916 4283471483
-0.68121016 0.48769587 0.29325426 4283471483
-0.6747511 0.48552293 0.29486614 4283471483
-0.66838074 0.48113501 0.29502463 4283471483
-0.71660024 0.49997765 0.29009098 4283471483
-0.70405334 0.49906209 0.2943705 4283471483
-0.69487047 0.49774137 0.29508263 4283471483
-0.68505979 0.49379691 0.29523009 4283471483
-0.67871714 0.49094233 0.29585072 4283471483
-0.79269129 0.50968939 0.29204497 4283471483
-0.78865272 0.50975585 0.29032964 4283471483
-0.77357113 0.50895536 0.29725707 4283471483
-0.76496029 0.50828969 0.29527152 4283471483
-0.75489229 0.50833166 0.29535607 4283471483
-0.74485117 0.50737643 0.29519886 4283471483
-0.73501974 0.5061847 0.29495651 4283471483
-0.72487313 0.50374639 0.29510844 4283471483
-0.71496093 0.50201911 0.29571053 4283471483
-0.70651126 0.50116754 0.29536662 4283471483
-1.0022225 0.51943839 0.29584837 4283471483
-0.99846554 0.5189392 0.29335934 4283471483
-0.98748875 0.51971477 0.29279566 4283471483
-0.96260315 0.51904535 0.29925248 4283471483
-0.94761115 0.51952398 0.29885143 4283471483
-0.93263048 0.51957059 0.29459444 4283471483
-0.92396146 0.518062 0.2957831 4283471483
-0.91532797 0.51706803 0.29452461 4283471483
-0.90505475 0.5171386 0.29520369 4283471483
-0.89442313 0.5173406 0.29560935 4283471483
-0.88519454 0.51692164 0.29420134 4283471483
-0.87400079 0.51689434 0.29557648 4283471483
-0.86542004 0.5167492 0.29432529 4283471483
-0.85510969 0.51711428 0.29509932 4283471483
-0.84518325 0.5154559 0.29567578 4283471483
-0.83433264 0.51377368 0.29563519 4283471483
-0.82631248 0.5120638 0.294431 4283471483
-0.81473917 0.512703 0.29456881 4283471483
-0.80553311 0.51199794 0.29585773 4283471483
-0.79611492 0.51177669 0.29511034 4283471483
-0.7830959 0.51254892 0.29622886 4283471483
-0.77639544 0.51115149 0.29469419 4283471483
-0.76674873 0.5110774 0.29161909 4283471483
-0.75090319 0.51009655 0.29192391 4283471483
-0.7493391 0.51006341 0.29051858 4283471483
-1.0747024 0.52515733 0.29542676 4283471483
-1.0644929 0.52503473 0.29507148 4283471483
-1.0539721 0.52405483 0.29601601 4283471483
-1.0448185 0.52227026 0.29524919 4283471483
-1.0351458 0.52260345 0.29483432 4283471483
-1.023674 0.52391517 0.29427916 4283471483
-1.0149146 0.52224821 0.29496261 4283471483
-1.0050356 0.52153581 0.29530543 4283471483
-0.98473775 0.52084488 0.2970832 4283471483
-0.9751212 0.52057874 0.29509813 4283471483
-0.96502852 0.52101576 0.29459918 4283471483
-0.95547217 0.52173895 0.29597178 4283471483
-0.9455108 0.52196604 0.29554465 4283471483
-0.93542194 0.52148163 0.29564762 4283471483
-0.92646343 0.52088845 0.2937482 4283471483
-0.65278 0.42655563 0.3048785 4283471483
-0.65187806 0.4356851 0.30472022 4283471483
-0.65127921 0.44401357 0.30547819 4283471483
-0.64903921 0.4484944 0.3048555 4283471483
-0.65224093 0.45567256 0.30524281 4283471483
-0.64941055 0.45270813 0.30437732 4283471483
-0.66151112 0.46683508 0.30678916 4283471483
-0.65683293 0.46448615 0.30416471 4283471483
-0.66323614 0.47494832 0.30417335 4283471483
-0.65963495 0.47181016 0.30086848 4283471483
-0.68136227 0.4894805 0.30277488 4283471483
-0.67424297 0.48783445 0.30510938 4283471483
-0.66651452 0.48354504 0.30544958 4283471483
-0.71109408 0.49937847 0.30209577 4283471483
-0.70358801 0.49934569 0.30395851 4283471483
-0.69528168 0.49742341 0.30469826 4283471483
-0.68477362 0.493808 0.30449125 4283471483
-0.67770302 0.49069685 0.30587295 4283471483
-0.79983085 0.50999284 0.30037311 4283471483
-0.77538377 0.50963444 0.30349401 4283471483
-0.76448411 0.50860381 0.30397961 4283471483
-0.75462991 0.50803947 0.30445543 4283471483
-0.74492764 0.50705117 0.30514491 4283471483
-0.73385364 0.50694388 0.30569068 4283471483
-0.7255587 0.5050019 0.30441347 4283471483
-0.71504772 0.50230843 0.30464181 4283471483
-0.70652246 0.50091118 0.30768999 4283471483
-1.0052472 0.51951569 0.30158025 4283471483
-0.96150237 0.5196858 0.30537531 4283471483
-0.9549799 0.51961386 0.30249357 4283471483
-0.9493255 0.51956034 0.30039173 4283471483
-0.9327336 0.51776099 0.30330113 4283471483
-0.92480105 0.51748145 0.30455282 4283471483
-0.91596615 0.51697314 0.30385846 4283471483
-0.90409583 0.51716411 0.3048591 4283471483
-0.89682615 0.51687682 0.30351323 4283471483
-0.88204336 0.5187605 0.30149472 4283471483
-0.87523586 0.51802886 0.30544755 4283471483
-0.8650105 0.51707381 0.3049697 4283471483
-0.85551322 0.51591688 0.30446899 4283471483
-0.84538764 0.51457697 0.3047927 4283471483
-0.83615059 0.5132758 0.30511519 4283471483
-0.82502556 0.51317108 0.30474231 4283471483
-0.81429249 0.5134052 0.30523235 4283471483
-0.80561781 0.51221871 0.30415872 4283471483
-0.79446459 0.51257294 0.30583355 4283471483
-0.78498405 0.51210535 0.3046082 4283471483
-0.77589577 0.51074076 0.30652863 4283471483
-0.76615441 0.51064163 0.30789652 4283471483
-1.0737591 0.52444738 0.3063803 4283471483
-1.0642823 0.52467054 0.30564246 4283471483
-1.0557564 0.52313435 0.30443579 4283471483
-1.0450356 0.52325553 0.30363879 4283471483
-1.0344863 0.52561873 0.30602592 4283471483
-1.0247699 0.52505022 0.3052237 4283471483
-1.0152172 0.52339917 0.30429068 4283471483
-1.0061692 0.52251792 0.30512738 4283471483
-0.99243742 0.52305239 0.30586624 4283471483
-0.98539776 0.52162975 0.3047162 4283471483
-0.97470653 0.52130532 0.30500144 4283471483
-0.96490723 0.52161014 0.3053419 4283471483
-0.95396709 0.5220207 0.30524188 4283471483
-0.94554573 0.52097291 0.30481017 4283471483
-0.93588084 0.5211919 0.3057676 4283471483
-0.90645713 0.52018386 0.30921686 4283471483
-0.88332134 0.52104896 0.30716947 4283471483
-0.87816572 0.52123082 0.30838788 4283471483
-0.65165067 0.42816386 0.31347388 4283471483
-0.65133435 0.43448082 0.31385151 4283471483
-0.64942884 0.43496722 0.31783172 4283471483
-0.65121806 0.44568092 0.31538671 4283471483
-0.64937699 0.4433805 0.31579989 4283471483
-0.65320283 0.45492393 0.31418222 4283471483
-0.64945173 0.45273641 0.31044248 4283471483
-0.6607033 0.46836817 0.31360501 4283471483
-0.65655571 0.46431836 0.31518725 4283471483
-0.66176271 0.47584844 0.3145757 4283471483
-0.65951097 0.47254282 0.3165884 4283471483
-0.67404908 0.48764488 0.31492364 4283471483
-0.66625315 0.48307461 0.31524485 4283471483
-0.71081138 0.49903381 0.31869727 4283471483
-0.7043035 0.49878445 0.31539848 4283471483
-0.69550401 0.49785891 0.31549224 4283471483
-0.6852113 0.4942902 0.31509897 4283471483
-0.67818314 0.4914391 0.31410459 4283471483
-0.76177055 0.50899345 0.31165442 4283471483
-0.75430775 0.50940442 0.31414011 4283471483
-0.74414724 0.50832325 0.31597283 4283471483
-0.73589486 0.50653392 0.31353989 4283471483
-0.7245397 0.50520068 0.31549305 4283471483
-0.71457499 0.50275743 0.31484249 4283471483
-0.70688391 0.50143933 0.31349546 4283471483
-0.974401 0.51995927 0.3169646 4283471483
-0.9324441 0.51959044 0.31610262 4283471483
-0.92639816 0.51898152 0.31478938 4283471483
-0.90544862 0.51835728 0.31405911 4283471483
-0.88254482 0.5194779 0.31598186 4283471483
-0.87569183 0.51835167 0.31324807 4283471483
-0.86165339 0.51490271 0.31117502 4283471483
-0.854397 0.51719069 0.31620607 4283471483
-0.84479213 0.51544625 0.31469283 4283471483
-0.83519495 0.51379406 0.31521231 4283471483
-0.82541817 0.51359433 0.31526005 4283471483
-0.81521946 0.51439184 0.31482083 4283471483
-0.80415279 0.51566237 0.31511894 4283471483
-0.79512137 0.51385927 0.31517157 4283471483
-0.78538269 0.51227862 0.31537756 4283471483
-0.77489114 0.51159447 0.31498468 4283471483
-0.76519924 0.51108223 0.31530353 4283471483
-0.75687402 0.51105058 0.31819755 4283471483
-0.7455976 0.51043367 0.31557554 4283471483
-1.0751811 0.52443373 0.3154344 4283471483
-1.066087 0.52336127 0.31481174 4283471483
-1.0544521 0.52322042 0.31528041 4283471483
-1.044633 0.52425939 0.31533724 4283471483
-1.0342147 0.5247103 0.31573337 4283471483
-1.0252582 0.52490634 0.31437385 4283471483
-1.0127852 0.52656478 0.31559879 4283471483
-1.0062422 0.5253455 0.31368554 4283471483
-0.99530494 0.52533513 0.3150472 4283471483
-0.98500991 0.52345514 0.31522804 4283471483
-0.97462857 0.52286297 0.31438056 4283471483
-0.96474427 0.52211559 0.31404313 4283471483
-0.95541692 0.5227989 0.31586766 4283471483
-0.94486314 0.5233621 0.31520075 4283471483
-0.93575448 0.52239305 0.3146956 4283471483
-0.92089331 0.52025259 0.31630051 4283471483
-0.91458058 0.52030486 0.31520641 4283471483
-0.90817332 0.52040803 0.31516743 4283471483
-0.89335644 0.52131999 0.31735593 4283471483
-0.88387394 0.52215123 0.3146283 4283471483
-0.87516457 0.52067059 0.31774032 4283471483
-0.8615284 0.52133495 0.31681445 4283471483
-0.8577193 0.520724 0.31576392 4283471483
-0.65081763 0.43434376 0.32103005 4283471483
-0.6486097 0.43652833 0.32560822 4283471483
-0.65013003 0.44585884 0.32021961 4283471483
-0.64834195 0.44528887 0.32581297 4283471483
-0.6514706 0.45612252 0.32512519 4283471483
-0.649297 0.4532361 0.32356989 4283471483
-0.66050434 0.46891105 0.32930839 4283471483
-0.65589941 0.46494433 0.32534245 4283471483
-0.66240549 0.4756825 0.32535794 4283471483
-0.65855926 0.47233987 0.32386771 4283471483
-0.673437 0.48712152 0.32592338 4283471483
-0.66654164 0.48340094 0.32459739 4283471483
-0.70329285 0.49870872 0.32414636 4283471483
-0.69468832 0.49638906 0.32496926 4283471483
-0.68526405 0.49309647 0.32498398 4283471483
-0.67811626 0.49113724 0.32549533 4283471483
-0.75377518 0.50849146 0.32643813 4283471483
-0.74519455 0.50781852 0.32475632 4283471483
-0.73423392 0.50817049 0.32540417 4283471483
-0.72509789 0.5068748 0.32486564 4283471483
-0.71555352 0.50354838 0.32458869 4283471483
-0.70565391 0.50146633 0.32696712 4283471483
-0.94249225 0.51971966 0.32276857 4283471483
-0.93634993 0.51979893 0.32315531 4283471483
-0.91447061 0.51848423 0.32069683 4283471483
-0.89354104 0.51950669 0.32626793 4283471483
-0.88696498 0.51937902 0.322703 4283471483
-0.87314045 0.51852596 0.32613438 4283471483
-0.86363328 0.5186311 0.32535946 4283471483
-0.85473335 0.51754463 0.3249431 4283471483
-0.84484345 0.51664376 0.32489386 4283471483
-0.83532226 0.51396918 0.32468441 4283471483
-0.82601231 0.51302451 0.32465056 4283471483
-0.81481373 0.51648188 0.32648212 4283471483
-0.80496114 0.51658005 0.32481343 4283471483
-0.79447627 0.51490939 0.32442865 4283471483
-0.78442132 0.5135572 0.32623744 4283471483
-0.77495068 0.51267624 0.32516223 4283471483
-0.76437151 0.51241612 0.32533213 4283471483
-0.75648594 0.5108496 0.32342023 4283471483
-1.0751858 0.52645236 0.32541895 4283471483
-1.0652572 0.52499294 0.32470688 4283471483
-1.0553612 0.52408385 0.32476732 4283471483
-1.0447495 0.52401894 0.32478291 4283471483
-1.0368552 0.52246606 0.3240495 4283471483
-1.0232704 0.52447784 0.32527629 4283471483
-1.0147672 0.52413577 0.32379156 4283471483
-1.0030128 0.52570724 0.32183218 4283471483
-0.99494588 0.52619904 0.32471988 4283471483
-0.9841516 0.52394533 0.32460743 4283471483
-0.9757551 0.52189922 0.32502142 4283471483
-0.96514088 0.52303421 0.32436904 4283471483
-0.95489073 0.52319717 0.32449171 4283471483
-0.94475228 0.52304745 0.32511362 4283471483
-0.93363029 0.52126712 0.32472476 4283471483
-0.92394614 0.52080661 0.32543305 4283471483
-0.9166522 0.52065033 0.32425517 4283471483
-0.90369797 0.52355033 0.32610193 4283471483
-0.89658654 0.52227885 0.32449681 4283471483
-0.88295597 0.52056885 0.32680979 4283471483
-0.87486565 0.52068937 0.3245272 4283471483
-0.86545485 0.52128565 0.32093528 4283471483
-0.64762515 0.43825814 0.33438003 4283471483
-0.65053737 0.44390813 0.337019 4283471483
-0.64823961 0.4444916 0.33468845 4283471483
-0.65180558 0.45594925 0.33497697 4283471483
-0.64883208 0.45271412 0.33424574 4283471483
-0.66117674 0.46896049 0.33391997 4283471483
-0.65589398 0.46485215 0.33517104 4283471483
-0.66319615 0.47579455 0.33469632 4283471483
-0.65947193 0.47009394 0.33815241 4283471483
-0.68076473 0.48910737 0.33623978 4283471483
-0.67432135 0.48660308 0.33498475 4283471483
-0.66727 0.48219877 0.33441177 4283471483
-0.70328009 0.49876016 0.33350578 4283471483
-0.69512928 0.4973585 0.3353644 4283471483
-0.68456835 0.49392173 0.33504099 4283471483
-0.67909473 0.49121201 0.33279675 4283471483
-0.75376809 0.50836354 0.33241469 4283471483
-0.74438792 0.50894219 0.33593911 4283471483
-0.73498243 0.50766033 0.33465773 4283471483
-0.72438806 0.5067699 0.33505312 4283471483
-0.71488869 0.50427032 0.33510339 4283471483
-0.70702845 0.50157034 0.3351672 4283471483
-0.89309889 0.51792455 0.33028713 4283471483
-0.873335 0.51911271 0.33110026 4283471483
-0.86624575 0.51881641 0.33289063 4283471483
-0.85580498 0.51845515 0.33368126 4283471483
-0.84498352 0.51790297 0.3348729 4283471483
-0.8351199 0.51671481 0.33497447 4283471483
-0.82325763 0.51713806 0.33630109 4283471483
-0.81545854 0.51572025 0.33450788 4283471483
-0.80469286 0.51631844 0.33502334 4283471483
-0.79495364 0.51551425 0.335255 4283471483
-0.78591585 0.51261324 0.33487052 4283471483
-0.7755335 0.51236975 0.33479553 4283471483
-0.76437628 0.51296109 0.33444297 4283471483
-0.75564885 0.51152939 0.33679321 4283471483
-0.74794608 0.5100013 0.33917236 4283471483
-1.0642607 0.52842319 0.33207285 4283471483
-1.0533109 0.52756661 0.33455831 4283471483
-1.0451843 0.52567345 0.33430541 4283471483
-1.0347049 0.52512342 0.33509019 4283471483
-1.0253279 0.52562261 0.33523861 4283471483
-1.0149207 0.52703482 0.33483174 4283471483
-1.0038483 0.52794093 0.33545348 4283471483
-0.99575067 0.52589095 0.33424222 4283471483
-0.98531818 0.52362633 0.33491936 4283471483
-0.97478366 0.52342111 0.33581352 4283471483
-0.96592468 0.52366203 0.33432585 4283471483
-0.9554463 0.52448899 0.33413458 4283471483
-0.94522882 0.52420259 0.33626956 4283471483
-0.93521148 0.52350742 0.33443707 4283471483
-0.92520183 0.52329099 0.33460256 4283471483
-0.91485751 0.52531743 0.33610752 4283471483
-0.90537465 0.5237909 0.33573431 4283471483
-0.89493698 0.52355522 0.33353904 4283471483
-0.88430369 0.52268326 0.33669594 4283471483
-0.87572193 0.52177471 0.33451256 4283471483
-0.86483508 0.52123696 0.33803785 4283471483
-0.85364091 0.52034318 0.33769265 4283471483
-0.65079904 0.43860117 0.34082532 4283471483
-0.64991224 0.43962833 0.34537196 4283471483
-0.65090001 0.44498491 0.34494016 4283471483
-0.64923227 0.44429645 0.34355679 4283471483
-0.65187126 0.45761079 0.34482852 4283471483
-0.64879358 0.45422581 0.34522739 4283471483
-0.6537509 0.46530458 0.3453818 4283471483
-0.66141629 0.47750986 0.34447658 4283471483
-0.6576879 0.47378522 0.3450774 4283471483
-0.68124497 0.48980087 0.3425104 4283471483
-0.67483187 0.48816681 0.34415996 4283471483
-0.66575778 0.483529 0.34543952 4283471483
-0.70176792 0.49953976 0.34487018 4283471483
-0.6948241 0.49805441 0.34514508 4283471483
-0.6852147 0.4942826 0.34472319 4283471483
-0.67760193 0.49186468 0.34792572 4283471483
-0.75039846 0.50823671 0.34259695 4283471483
-0.74401957 0.5088262 0.3446925 4283471483
-0.73473454 0.50872391 0.34460032 4283471483
-0.72507322 0.50648689 0.34491265 4283471483
-0.71510082 0.50419819 0.34531569 4283471483
-0.70522726 0.50247544 0.34489819 4283471483
-0.69875711 0.50064993 0.34893385 4283471483
-0.85396755 0.51856422 0.34100059 4283471483
-0.84097171 0.5196377 0.3465566 4283471483
-0.83551633 0.51934105 0.34479997 4283471483
-0.82411242 0.51825064 0.34469771 4283471483
-0.81364131 0.51886195 0.34631839 4283471483
-0.80497843 0.51740062 0.34464005 4283471483
-0.79583448 0.51559901 0.34485582 4283471483
-0.7854116 0.51412445 0.34565532 4283471483
-0.7757622 0.51295763 0.34483761 4283471483
-0.76446033 0.51434547 0.34515294 4283471483
-0.75524521 0.51256287 0.34476992 4283471483
-0.74849749 0.51058388 0.34593526 4283471483
-0.73254752 0.5100522 0.34775776 4283471483
-1.0406084 0.52978379 0.34206951 4283471483
-1.0350072 0.52768427 0.34309232 4283471483
-1.0245241 0.5278939 0.34528705 4283471483
-1.0149249 0.52857107 0.34600371 4283471483
-1.0051159 0.52772957 0.34471366 4283471483
-0.99510849 0.52633488 0.34518391 4283471483
-0.9862231 0.52572513 0.34534422 4283471483
-0.97515923 0.52615857 0.3450174 4283471483
-0.96405375 0.5263114 0.34444171 4283471483
-0.95449728 0.5264377 0.34595391 4283471483
-0.94397831 0.52472275 0.34557751 4283471483
-0.9360258 0.52381325 0.34453583 4283471483
-0.92501009 0.52504009 0.34556064 4283471483
-0.91486961 0.52551317 0.34354523 4283471483
-0.90560192 0.52490735 0.34557089 4283471483
-0.89441359 0.524764 0.34607533 4283471483
-0.88474208 0.52392679 0.34478718 4283471483
-0.87485605 0.52315414 0.34531981 4283471483
-0.86488199 0.52155191 0.34555304 4283471483
-0.855654 0.52077615 0.34474802 4283471483
-0.84485769 0.52138466 0.34590584 4283471483
-0.83454394 0.52057034 0.3476209 4283471483
-0.82819289 0.52008373 0.34366274 4283471483
-0.6505903 0.4451189 0.35968357 4283471483
-0.64866096 0.44577107 0.35521674 4283471483
-0.65177298 0.45517033 0.35611442 4283471483
-0.64914656 0.45388928 0.35337704 4283471483
-0.66057944 0.46992564 0.35439256 4283471483
-0.65521401 0.46519443 0.3543824 4283471483
-0.66148305 0.47696659 0.35421282 4283471483
-0.65848458 0.47384706 0.35623974 4283471483
-0.67310071 0.4887709 0.35399261 4283471483
-0.66614324 0.48410848 0.35502583 4283471483
-0.69186515 0.49916697 0.35548115 4283471483
-0.68503606 0.49620491 0.35498357 4283471483
-0.67604256 0.4918915 0.3548739 4283471483
-0.66924655 0.49034953 0.35688764 4283471483
-0.74445742 0.50940275 0.35150677 4283471483
-0.7341609 0.50788146 0.35522431 4283471483
-0.72516948 0.50599241 0.35486311 4283471483
-0.71495855 0.50372356 0.35505927 4283471483
-0.70566249 0.5018543 0.35398245 4283471483
-0.69541526 0.50181788 0.35668743 4283471483
-0.8601957 0.5193544 0.35522375 4283471483
-0.85582387 0.51971793 0.35703564 4283471483
-0.84434426 0.51994377 0.35245228 4283471483
-0.83438098 0.51845688 0.35191619 4283471483
-0.82540685 0.51856244 0.35272372 4283471483
-0.81495118 0.51822895 0.3543348 4283471483
-0.80536544 0.5180741 0.35471296 4283471483
-0.79449534 0.51858544 0.35472652 4283471483
-0.78525209 0.51614368 0.35414582 4283471483
-0.7746439 0.51431453 0.35563377 4283471483
-0.76433432 0.51337349 0.35542688 4283471483
-0.75491893 0.51257885 0.35480541 4283471483
-0.74499649 0.51151842 0.35604161 4283471483
-0.73799223 0.51020944 0.3544355 4283471483
-1.0228736 0.52889818 0.35141939 4283471483
-1.0142202 0.52773345 0.35211408 4283471483
-1.0056763 0.5272941 0.35481462 4283471483
-0.99491912 0.5260331 0.35398138 4283471483
-0.98569626 0.52609235 0.35467944 4283471483
-0.97562546 0.52671123 0.35385311 4283471483
-0.9645068 0.52874023 0.35644934 4283471483
-0.9551127 0.52806056 0.35503948 4283471483
-0.945454 0.52641362 0.3551895 4283471483
-0.93748814 0.52615064 0.35318014 4283471483
-0.92541695 0.52735907 0.35495451 4283471483
-0.91414446 0.5268842 0.35491839 4283471483
-0.90510821 0.52572155 0.35465041 4283471483
-0.89544338 0.52473485 0.35484213 4283471483
-0.88586247 0.52301627 0.35482499 4283471483
-0.87478763 0.52198648 0.35468012 4283471483
-0.86562759 0.52106845 0.35479689 4283471483
-0.85518467 0.52132338 0.35416359 4283471483
-0.8464092 0.52093542 0.35539797 4283471483
-0.83638763 0.52105141 0.35598868 4283471483
-0.8252995 0.52140111 0.35789776 4283471483
-0.8175844 0.52159214 0.35866353 4283471483
-0.92589599 0.53125632 0.35881841 4283471483
-0.65103459 0.4385882 0.36447924 4283471483
-0.64969605 0.43967378 0.36026034 4283471483
-0.65144408 0.44483492 0.36346108 4283471483
-0.64938146 0.44393271 0.36617988 4283471483
-0.65128654 0.45629331 0.36484212 4283471483
-0.64871258 0.45491001 0.36753464 4283471483
-0.65468508 0.46491867 0.36472318 4283471483
-0.66113615 0.47725952 0.36565366 4283471483
-0.65843898 0.47430834 0.3652567 4283471483
-0.67114389 0.48902693 0.36540383 4283471483
-0.66513181 0.48464802 0.36527857 4283471483
-0.69185013 0.49759296 0.36557245 4283471483
-0.68554288 0.4954443 0.36449513 4283471483
-0.67542845 0.49214199 0.36468109 4283471483
-0.7338565 0.50894582 0.36610794 4283471483
-0.724904 0.50666726 0.3644253 4283471483
-0.71472681 0.5045709 0.36487564 4283471483
-0.70390338 0.50358278 0.36574146 4283471483
-0.69617701 0.50114721 0.36473975 4283471483
-0.81382769 0.5197013 0.36355993 4283471483
-0.80389237 0.51812446 0.36485845 4283471483
-0.7949087 0.51781213 0.36519733 4283471483
-0.78417522 0.51812893 0.36526504 4283471483
-0.77534026 0.51617599 0.3647989 4283471483
-0.76512676 0.51460809 0.36451146 4283471483
-0.75482935 0.51293421 0.36558196 4283471483
-0.74496198 0.51127267 0.36458167 4283471483
-0.73687303 0.51106936 0.36419469 4283471483
-0.98822951 0.52821499 0.36283478 4283471483
-0.97393203 0.52933854 0.36330622 4283471483
-0.9658677 0.52810532 0.36534035 4283471483
-0.95470577 0.52840763 0.36536267 4283471483
-0.94572043 0.52754527 0.36479521 4283471483
-0.93481338 0.52801818 0.36577535 4283471483
-0.92380798 0.52939224 0.3648839 4283471483
-0.91444045 0.52813202 0.36395106 4283471483
-0.90538692 0.52684653 0.36585391 4283471483
-0.89502269 0.5255596 0.36507893 4283471483
-0.8849529 0.52455676 0.36442927 4283471483
-0.87507766 0.52418941 0.36598873 4283471483
-0.86499441 0.52294475 0.36484918 4283471483
-0.85469913 0.52294225 0.36517861 4283471483
-0.84531409 0.52212578 0.36547527 4283471483
-0.83475065 0.52151996 0.36505875 4283471483
-0.82470322 0.52139944 0.3648876 4283471483
-0.81521273 0.52074468 0.36513051 4283471483
-0.80740815 0.52082551 0.36379743 4283471483
-0.99302214 0.53088665 0.36138242 4283471483
-0.98839927 0.53096545 0.36315632 4283471483
-0.975869 0.53175378 0.3678174 4283471483
-0.96433127 0.53141266 0.36809704 4283471483
-0.95903653 0.53030884 0.36400634 4283471483
-0.92834866 0.53130829 0.36102211 4283471483
-0.91580856 0.53006351 0.36855248 4283471483
-0.64948934 0.43943486 0.37081355 4283471483
-0.65150774 0.44603872 0.37690839 4283471483
-0.64815968 0.44539785 0.37433726 4283471483
-0.65290612 0.45513815 0.37519905 4283471483
-0.64883447 0.45119724 0.37137851 4283471483
-0.65443838 0.46574017 0.37503111 4283471483
-0.66178077 0.47750172 0.37433016 4283471483
-0.65814871 0.47358808 0.37533396 4283471483
-0.67243576 0.48940754 0.37176901 4283471483
-0.66461325 0.4852587 0.37563738 4283471483
-0.6916517 0.49972257 0.37511826 4283471483
-0.68505704 0.49667591 0.37459359 4283471483
-0.6756469 0.49294543 0.37546584 4283471483
-0.66852903 0.49084193 0.37600631 4283471483
-0.74265999 0.50961107 0.37693524 4283471483
-0.7347337 0.50846559 0.37399787 4283471483
-0.72536677 0.50704211 0.3747324 4283471483
-0.71486962 0.50547922 0.37491864 4283471483
-0.70546162 0.50289935 0.37447721 4283471483
-0.69582981 0.50178581 0.374975 4283471483
-0.68800449 0.50006855 0.37881255 4283471483
-0.81221086 0.51919991 0.37199482 4283471483
-0.80566263 0.51878238 0.37268105 4283471483
-0.79383183 0.51824421 0.37551308 4283471483
-0.78548682 0.51755202 0.37420648 4283471483
-0.77476025 0.51725399 0.37499604 4283471483
-0.76437062 0.51545608 0.37506068 4283471483
-0.75522006 0.51266754 0.37500748 4283471483
-0.74540538 0.51132578 0.37440148 4283471483
-0.7362687 0.51045698 0.3763276 4283471483
-0.96439058 0.52856839 0.37308642 4283471483
-0.95185453 0.52879834 0.37257496 4283471483
-0.94490588 0.5272249 0.37532279 4283471483
-0.93473661 0.52723986 0.37502947 4283471483
-0.92543626 0.52702248 0.37454721 4283471483
-0.91510516 0.52693492 0.37454852 4283471483
-0.90560168 0.52696675 0.37451029 4283471483
-0.89540946 0.52601606 0.37482455 4283471483
-0.88451672 0.525029 0.37407303 4283471483
-0.87495947 0.52457511 0.37577108 4283471483
-0.86518794 0.52468604 0.37494057 4283471483
-0.85376108 0.52601999 0.3767513 4283471483
-0.8451035 0.52412164 0.37502664 4283471483
-0.83534926 0.52202076 0.37471595 4283471483
-0.82391155 0.52310538 0.37563056 4283471483
-0.81534159 0.52220064 0.37525374 4283471483
-0.80488968 0.52107787 0.37815854 4283471483
-0.79842633 0.52014899 0.37729245 4283471483
-0.96781778 0.53115606 0.37145182 4283471483
-0.95358723 0.53080302 0.3728089 4283471483
-0.94828534 0.5327087 0.37827778 4283471483
-0.65357929 0.43835279 0.3873671 4283471483
-0.65292406 0.44491398 0.38444328 4283471483
-0.65322071 0.45566532 0.38519123 4283471483
-0.65481454 0.46443844 0.38513026 4283471483
-0.66131657 0.47739542 0.38594496 4283471483
-0.65722466 0.47330856 0.38504457 4283471483
-0.6710695 0.48896533 0.38593549 4283471483
-0.66574311 0.48482969 0.38498759 4283471483
-0.65959102 0.48053366 0.38112664 4283471483
-0.69286925 0.49809241 0.38571498 4283471483
-0.68426061 0.49651134 0.3846797 4283471483
-0.67520308 0.49248677 0.38472492 4283471483
-0.73355275 0.50904441 0.38508186 4283471483
-0.72465909 0.50811791 0.38474011 4283471483
-0.71498376 0.50659686 0.38514203 4283471483
-0.7046805 0.50388843 0.38541898 4283471483
-0.69621044 0.50114918 0.38414836 4283471483
-0.6894443 0.50009906 0.38010618 4283471483
-0.79485387 0.51863617 0.38411835 4283471483
-0.78431481 0.51869375 0.38466373 4283471483
-0.77565694 0.51834375 0.38400504 4283471483
-0.76440257 0.51778668 0.38509429 4283471483
-0.75511265 0.5135709 0.3853488 4283471483
-0.74466765 0.51160473 0.38481775 4283471483
-0.73687547 0.51092172 0.3854785 4283471483
-0.94639421 0.5268023 0.38052201 4283471483
-0.93358737 0.52729887 0.38491082 4283471483
-0.92525131 0.52642995 0.38479647 4283471483
-0.91391957 0.52673042 0.38519275 4283471483
-0.90539366 0.52689213 0.3848992 4283471483
-0.8943947 0.52762151 0.38472903 4283471483
-0.88487041 0.52671236 0.38489208 4283471483
-0.87598521 0.52542281 0.38424537 4283471483
-0.86534661 0.52533591 0.38573346 4283471483
-0.85489392 0.52398092 0.3852331 4283471483
-0.84531456 0.52264464 0.38427427 4283471483
-0.8349008 0.52299875 0.38520411 4283471483
-0.82553428 0.52301437 0.38493857 4283471483
-0.81471843 0.52247894 0.38550594 4283471483
-0.80533195 0.52121478 0.38457957 4283471483
-0.79802483 0.5208146 0.38592616 4283471483
-0.78363866 0.52009565 0.38763916 4283471483
-0.77964264 0.52001095 0.38404873 4283471483
-0.7686761 0.52067626 0.38870806 4283471483
-0.94062167 0.53025103 0.38502795 4283471483
-0.93648809 0.53038901 0.38519314 4283471483
-0.65453184 0.43796322 0.39303324 4283471483
-0.65273803 0.44515693 0.39411822 4283471483
-0.64977312 0.44668168 0.3994568 4283471483
-0.65349573 0.45466506 0.39469716 4283471483
-0.65540135 0.46528184 0.39535713 4283471483
-0.66124445 0.47681844 0.39447775 4283471483
-0.65806806 0.4743773 0.39513651 4283471483
-0.67144382 0.48904616 0.39166462 4283471483
-0.6646015 0.48504379 0.39512578 4283471483
-0.65922642 0.48359436 0.39838743 4283471483
-0.69228297 0.49923405 0.39476687 4283471483
-0.68494612 0.49701899 0.39510584 4283471483
-0.67561388 0.49378616 0.39459789 4283471483
-0.66715902 0.49214503 0.39793625 4283471483
-0.73346049 0.50906092 0.39324552 4283471483
-0.72469872 0.50786304 0.39440522 4283471483
-0.71477377 0.50663114 0.39451537 4283471483
-0.70503014 0.50398839 0.39480111 4283471483
-0.69647878 0.50172937 0.39601216 4283471483
-0.68952137 0.50024253 0.39973119 4283471483
-0.80395782 0.51936018 0.39640063 4283471483
-0.7947641 0.51908582 0.39503708 4283471483
-0.78483033 0.51858395 0.39468092 4283471483
-0.77433383 0.51856542 0.39589569 4283471483
-0.76466173 0.51699883 0.39482227 4283471483
-0.75568134 0.51368594 0.39486298 4283471483
-0.7452454 0.51235878 0.39520961 4283471483
-0.73663372 0.51193649 0.39587158 4283471483
-0.72839743 0.51104659 0.39741725 4283471483
-0.92270041 0.52925938 0.39150748 4283471483
-0.91395926 0.52959955 0.39136237 4283471483
-0.90543514 0.52850938 0.39187297 4283471483
-0.89458525 0.52726078 0.39516902 4283471483
-0.88536108 0.52657294 0.39389879 4283471483
-0.87359327 0.52768546 0.3961153 4283471483
-0.86548579 0.52587789 0.39468116 4283471483
-0.85593277 0.52339649 0.39461213 4283471483
-0.8451072 0.52318877 0.3956106 4283471483
-0.83578122 0.52275127 0.39437696 4283471483
-0.82468933 0.52423483 0.39561975 4283471483
-0.81548035 0.52231747 0.39462191 4283471483
-0.80596018 0.52099144 0.39395723 4283471483
-0.79312932 0.52029687 0.39616635 4283471483
-0.78788447 0.52018571 0.39145398 4283471483
-0.77090335 0.52072352 0.39070925 4283471483
-0.91241503 0.53188038 0.3944661 4283471483
-0.90275353 0.53244984 0.39635003 4283471483
-0.89817947 0.53228545 0.39782831 4283471483
-0.65248674 0.43813819 0.40676984 4283471483
-0.65109199 0.44436097 0.4041101 4283471483
-0.64907038 0.44544873 0.40550172 4283471483
-0.65151483 0.45551753 0.40500778 4283471483
-0.64901114 0.45352671 0.4057489 4283471483
-0.65452254 0.46490791 0.40528139 4283471483
-0.66130406 0.47831926 0.40671575 4283471483
-0.65796047 0.47430813 0.40498605 4283471483
-0.67050093 0.48873678 0.40673289 4283471483
-0.6648584 0.48538855 0.40484121 4283471483
-0.65982038 0.48108059 0.40061939 4283471483
-0.69061613 0.49878421 0.40473387 4283471483
-0.68496162 0.49844062 0.40528348 4283471483
-0.67484808 0.49461025 0.4051033 4283471483
-0.66900557 0.49207112 0.40312648 4283471483
-0.72347921 0.50933224 0.40315041 4283471483
-0.71324283 0.50800258 0.40385708 4283471483
-0.7051242 0.50553781 0.40515232 4283471483
-0.69552106 0.50190061 0.40465954 4283471483
-0.68530095 0.50048125 0.40781155 4283471483
-0.81084758 0.51930267 0.40091386 4283471483
-0.80497795 0.51985657 0.40123048 4283471483
-0.79428339 0.51858604 0.40139297 4283471483
-0.78457999 0.5185625 0.4051488 4283471483
-0.77439898 0.51834607 0.40447322 4283471483
-0.76538306 0.51704067 0.40495187 4283471483
-0.75474298 0.51523048 0.40514299 4283471483
-0.74451292 0.51378971 0.40529409 4283471483
-0.73433048 0.5136773 0.40526491 4283471483
-0.7269426 0.51167881 0.40493572 4283471483
-0.71530092 0.51094878 0.40699428 4283471483
-0.8954072 0.52756435 0.40171078 4283471483
-0.88424665 0.52676904 0.40242419 4283471483
-0.8758207 0.52694309 0.40217456 4283471483
-0.86266953 0.52848905 0.40626338 4283471483
-0.85505182 0.52719259 0.40505272 4283471483
-0.84461433 0.52532798 0.40490857 4283471483
-0.83503634 0.52466637 0.40578163 4283471483
-0.82510018 0.52358526 0.40539512 4283471483
-0.81511205 0.5223484 0.40400359 4283471483
-0.80406231 0.5219605 0.40612638 4283471483
-0.79591411 0.52108663 0.40535745 4283471483
-0.78872168 0.52110124 0.40671879 4283471483
-0.89925838 0.53194988 0.40055037 4283471483
-0.88102818 0.53195941 0.40657872 4283471483
-0.87620962 0.53144431 0.40857333 4283471483
-0.86333913 0.53224397 0.40838137 4283471483
-0.85919726 0.53123641 0.40527821 4283471483
-0.65269798 0.43794164 0.41379631 4283471483
-0.65170389 0.44498137 0.41569185 4283471483
-0.64960545 0.44044203 0.41861445 4283471483
-0.65294951 0.45461342 0.41491967 4283471483
-0.64890969 0.45137489 0.41062999 4283471483
-0.65508503 0.46504408 0.41478685 4283471483
-0.66212058 0.47761777 0.41241577 4283471483
-0.65751004 0.47430623 0.41563848 4283471483
-0.67198801 0.48867142 0.4134247 4283471483
-0.6645804 0.48604798 0.41522938 4283471483
-0.65882236 0.48194033 0.41726989 4283471483
-0.69085205 0.4999153 0.41174698 4283471483
-0.68336445 0.49763438 0.41508394 4283471483
-0.67581451 0.49319059 0.41463518 4283471483
-0.66803783 0.49129125 0.41939527 4283471483
-0.71365249 0.50869095 0.41551051 4283471483
-0.7052905 0.5065608 0.41448048 4283471483
-0.69474918 0.5038563 0.41541743 4283471483
-0.68800831 0.50059474 0.41549709 4283471483
-0.7936393 0.51954603 0.41678745 4283471483
-0.78498864 0.51854491 0.41520807 4283471483
-0.77532095 0.51855779 0.41471449 4283471483
-0.76467884 0.51870143 0.41503224 4283471483
-0.75577331 0.51635623 0.41535828 4283471483
-0.74478918 0.51512289 0.41508022 4283471483
-0.73540777 0.51391298 0.41500035 4283471483
-0.72505099 0.51262325 0.41538632 4283471483
-0.71722478 0.51150805 0.41366506 4283471483
-0.86200231 0.52942085 0.41359389 4283471483
-0.85445291 0.52790606 0.41376793 4283471483
-0.84461665 0.52586925 0.41522893 4283471483
-0.83448637 0.5241788 0.41502067 4283471483
-0.82586646 0.52212614 0.41413498 4283471483
-0.81504846 0.52240694 0.41525823 4283471483
-0.80578339 0.52213228 0.41460732 4283471483
-0.79546762 0.52171922 0.41430822 4283471483
-0.78635806 0.52043933 0.41386011 4283471483
-0.86330307 0.53288817 0.41245022 4283471483
-0.85377473 0.53041363 0.41750982 4283471483
-0.65293318 0.43864575 0.42558026 4283471483
-0.65336937 0.4452295 0.42463624 4283471483
-0.64983994 0.44265762 0.42187402 4283471483
-0.65351397 0.45480415 0.42530715 4283471483
-0.65331221 0.46566004 0.42503235 4283471483
-0.66069418 0.47845763 0.42520666 4283471483
-0.65676498 0.47469395 0.42493993 4283471483
-0.67098111 0.48968899 0.42315879 4283471483
-0.66436082 0.48530343 0.42495722 4283471483
-0.65908045 0.48097754 0.42495504 4283471483
-0.68312353 0.49973851 0.42521858 4283471483
-0.67484969 0.49534491 0.42515513 4283471483
-0.66836292 0.49060562 0.42533562 4283471483
-0.73185074 0.5093534 0.42770743 4283471483
-0.72402227 0.50958574 0.42658976 4283471483
-0.71464437 0.50903964 0.42430621 4283471483
-0.70452106 0.50707954 0.42507583 4283471483
-0.69485611 0.50358403 0.42479584 4283471483
-0.68587106 0.50142598 0.42489138 4283471483
-0.67792869 0.50022799 0.42695034 4283471483
-0.80030274 0.51968729 0.42277452 4283471483
-0.79808152 0.51964021 0.42077881 4283471483
-0.78329831 0.51921964 0.42503595 4283471483
-0.77609277 0.51845938 0.42442891 4283471483
-0.76456028 0.51781142 0.42482686 4283471483
-0.75488293 0.51605457 0.42522171 4283471483
-0.74534833 0.51435822 0.42449427 4283471483
-0.73526198 0.51254058 0.42496797 4283471483
-0.72592825 0.51147825 0.42276278 4283471483
-0.71413386 0.51066208 0.425605 4283471483
-0.70918953 0.51075947 0.42572942 4283471483
-0.85043359 0.52852321 0.42026579 4283471483
-0.84335738 0.52636421 0.42339808 4283471483
-0.83587897 0.52337378 0.42422536 4283471483
-0.82437634 0.52363747 0.42592928 4283471483
-0.81499624 0.52321887 0.4251622 4283471483
-0.80582267 0.52193403 0.42422402 4283471483
-0.79477066 0.5211938 0.42537919 4283471483
-0.78684509 0.52094215 0.42593962 4283471483
-0.76784718 0.52028239 0.42902988 4283471483
-0.65499473 0.43753722 0.4348582 4283471483
-0.65332484 0.44557855 0.43456173 4283471483
-0.65207666 0.45548663 0.43513146 4283471483
-0.64969981 0.45039779 0.43921718 4283471483
-0.65314305 0.46513438 0.43552557 4283471483
-0.66153699 0.47878113 0.43094119 4283471483
-0.65636075 0.47507253 0.43505847 4283471483
-0.66367978 0.48629814 0.43514991 4283471483
-0.65877026 0.48187661 0.43767211 4283471483
-0.68146068 0.49857736 0.43355116 4283471483
-0.67485207 0.49565741 0.43511835 4283471483
-0.66850013 0.49192521 0.43505687 4283471483
-0.72508794 0.50966984 0.43391871 4283471483
-0.71420199 0.50938433 0.43546155 4283471483
-0.70521617 0.50767612 0.43489411 4283471483
-0.69520098 0.50512683 0.43488732 4283471483
-0.68535161 0.50204569 0.43486965 4283471483
-0.67906183 0.50108904 0.43647555 4283471483
-0.79089761 0.51975107 0.43984491 4283471483
-0.78469467 0.51813644 0.4351311 4283471483
-0.77444911 0.51751649 0.43469805 4283471483
-0.76540214 0.51756513 0.43401012 4283471483
-0.75445402 0.51725006 0.43532053 4283471483
-0.74502021 0.51536369 0.43503946 4283471483
-0.73545539 0.51361567 0.43417877 4283471483
-0.72557575 0.51211762 0.43603349 4283471483
-0.71722311 0.51097232 0.43348581 4283471483
-0.70856696 0.51009697 0.43921107 4283471483
-0.82377511 0.52492076 0.43211487 4283471483
-0.81426626 0.52459097 0.43400973 4283471483
-0.80538559 0.52351427 0.43491894 4283471483
-0.79508072 0.52222759 0.4352318 4283471483
-0.78700185 0.52134407 0.43340427 4283471483
-0.65479261 0.43698981 0.44522631 4283471483
-0.65249252 0.44574159 0.44540009 4283471483
-0.65205109 0.45585692 0.44525158 4283471483
-0.64953369 0.45304614 0.44522119 4283471483
-0.65436977 0.46493742 0.44519383 4283471483
-0.66055828 0.47805282 0.44640937 4283471483
-0.65734857 0.47430262 0.44515064 4283471483
-0.67141628 0.4898448 0.44159067 4283471483
-0.66319954 0.48594701 0.44450542 4283471483
-0.6593706 0.48324978 0.44636667 4283471483
-0.68116456 0.49891561 0.44665802 4283471483
-0.67441881 0.49549583 0.44483474 4283471483
-0.66754586 0.49134228 0.4461211 4283471483
-0.72150832 0.50967163 0.44223955 4283471483
-0.71535039 0.50858313 0.44270995 4283471483
-0.70420527 0.5082255 0.44517982 4283471483
-0.69472784 0.50589436 0.44458684 4283471483
-0.68521351 0.50314248 0.44524485 4283471483
-0.6781345 0.50060475 0.44389063 4283471483
-0.79033566 0.51799607 0.44051173 4283471483
-0.78334516 0.51834786 0.44220859 4283471483
-0.77577519 0.51846761 0.44434649 4283471483
-0.7654525 0.51939112 0.44407117 4283471483
-0.75440049 0.51793432 0.44489643 4283471483
-0.74546015 0.51535684 0.44457173 4283471483
-0.73468006 0.51427525 0.44555256 4283471483
-0.72581559 0.51251084 0.44445118 4283471483
-0.71538359 0.51116455 0.44788963 4283471483
-0.70889664 0.51084298 0.4480803 4283471483
-0.80535495 0.524979 0.44045654 4283471483
-0.79540122 0.52462137 0.44249552 4283471483
-0.7843501 0.52357048 0.44615063 4283471483
-0.77894664 0.52079374 0.44486365 4283471483
-0.76389307 0.52012265 0.44712299 4283471483
-0.75768894 0.52026409 0.44622386 4283471483
-0.65569812 0.43593249 0.45476496 4283471483
-0.65365958 0.44515133 0.45526004 4283471483
-0.65301925 0.45547256 0.45534232 4283471483
-0.65265274 0.46564704 0.45538217 4283471483
-0.65586025 0.47475275 0.45540202 4283471483
-0.66201866 0.48619139 0.45587593 4283471483
-0.65825707 0.48243412 0.45451477 4283471483
-0.68129659 0.49929142 0.45423523 4283471483
-0.67482084 0.49717575 0.45476994 4283471483
-0.66595185 0.49328506 0.45545322 4283471483
-0.71085644 0.50941938 0.45309359 4283471483
-0.70528871 0.50907636 0.45257103 4283471483
-0.69448823 0.50613672 0.45503184 4283471483
-0.68543375 0.50184882 0.45484105 4283471483
-0.67744935 0.50006807 0.4583644 4283471483
-0.77410352 0.51999134 0.4500522 4283471483
-0.76432836 0.51883674 0.45551085 4283471483
-0.75557995 0.51887107 0.45385146 4283471483
-0.74415231 0.51801282 0.45352116 4283471483
-0.73513854 0.51653439 0.45542622 4283471483
-0.72531158 0.51378232 0.45528224 4283471483
-0.71505576 0.51204658 0.45526832 4283471483
-0.70507574 0.51097548 0.45728371 4283471483
-0.69853336 0.51057875 0.45693836 4283471483
-0.77439535 0.5220753 0.45254564 4283471483
-0.76600826 0.52082622 0.4541952 4283471483
-0.75494301 0.52096093 0.4569616 4283471483
-0.74516284 0.52081758 0.45724422 4283471483
-0.73961848 0.52044713 0.45606041 4283471483
-0.65484446 0.43779054 0.46463197 4283471483
-0.65291178 0.445023 0.46541309 4283471483
-0.65264684 0.4555974 0.46562076 4283471483
-0.64970374 0.45417559 0.46540192 4283471483
-0.65517414 0.46487826 0.46488968 4283471483
-0.65733176 0.47540808 0.46474233 4283471483
-0.66237032 0.48643854 0.4650726 4283471483
-0.65934753 0.48410845 0.46554545 4283471483
-0.68071485 0.49876028 0.46449146 4283471483
-0.67424196 0.49743167 0.46481448 4283471483
-0.66669708 0.49341094 0.4658415 4283471483
-0.7110337 0.50920361 0.46927226 4283471483
-0.70403278 0.5088672 0.46602365 4283471483
-0.69518089 0.50716364 0.46494162 4283471483
-0.68466312 0.50338036 0.46531329 4283471483
-0.6793645 0.50060391 0.46428713 4283471483
-0.75290817 0.51842332 0.46048132 4283471483
-0.74432755 0.51882195 0.46424186 4283471483
-0.73469555 0.5167886 0.46543679 4283471483
-0.72463334 0.51422805 0.46470314 4283471483
-0.71497905 0.51204789 0.46520564 4283471483
-0.7061165 0.51085281 0.4632633 4283471483
-0.76024139 0.52165616 0.4604665 4283471483
-0.75364262 0.52144819 0.46214154 4283471483
-0.74561477 0.52073693 0.46360609 4283471483
-0.65568382 0.43880567 0.47514588 4283471483
-0.65429038 0.44520882 0.47446716 4283471483
-0.65462857 0.45505974 0.47461778 4283471483
-0.65567815 0.46513867 0.47516128 4283471483
-0.66083711 0.47857544 0.47767872 4283471483
-0.65746337 0.47455674 0.47536266 4283471483
