# .PCD v0.7 - Point Cloud Data file format
VERSION 0.7
FIELDS x y z rgba
SIZE 4 4 4 4
TYPE F F F U
COUNT 1 1 1 1
WIDTH 1083
HEIGHT 1
VIEWPOINT 0 0 0 1 0 0 0
POINTS 1083
DATA ascii
-0.63926148 0.4451519 0.30415961 4285133622
-0.64328068 0.45603976 0.30502924 4285133622
-0.63922381 0.45250684 0.30186325 4285133622
-0.65079415 0.4669953 0.302477 4285133622
-0.64783365 0.46440858 0.30564889 4285133622
-0.6613248 0.47952363 0.3065919 4285133622
-0.65510041 0.47508094 0.30483186 4285133622
-0.64948177 0.47199225 0.30723733 4285133622
-0.68506271 0.48911858 0.30252695 4285133622
-0.67440677 0.48783404 0.30500686 4285133622
-0.66513485 0.48434502 0.30510658 4285133622
-0.6596387 0.48169854 0.30092108 4285133622
-0.72182751 0.49966136 0.30298895 4285133622
-0.71463317 0.4984743 0.30536571 4285133622
-0.70567238 0.49712527 0.304694 4285133622
-0.69496101 0.49494195 0.30528849 4285133622
-0.68625164 0.49145976 0.30529425 4285133622
-0.67755574 0.49064922 0.30849403 4285133622
-0.8102628 0.50953591 0.30837846 4285133622
-0.8053059 0.50949764 0.3029398 4285133622
-0.79359305 0.50782359 0.30507615 4285133622
-0.7852295 0.50680077 0.30475032 4285133622
-0.77421039 0.50745738 0.30460733 4285133622
-0.76549083 0.50638223 0.30539396 4285133622
-0.75503343 0.5062356 0.30501878 4285133622
-0.74489051 0.50454682 0.3052558 4285133622
-0.73628485 0.50131738 0.30442077 4285133622
-0.72384316 0.50152504 0.30510283 4285133622
-0.71690077 0.50013167 0.3048133 4285133622
-1.1216712 0.51964021 0.30037749 4285133622
-1.1128067 0.51983565 0.30505109 4285133622
-1.1070721 0.5189957 0.30250323 4285133622
-1.0945238 0.51821196 0.30374038 4285133622
-1.0852296 0.5184204 0.30361605 4285133622
-1.0757604 0.51885456 0.30612257 4285133622
-1.065128 0.51909262 0.30477405 4285133622
-1.0550076 0.5194661 0.30448198 4285133622
-1.044233 0.51727456 0.30556425 4285133622
-1.0364161 0.51634842 0.30430779 4285133622
-1.0244004 0.51764101 0.30775312 4285133622
-1.0148573 0.5186736 0.30444035 4285133622
-1.0058279 0.51721805 0.303509 4285133622
-0.99337596 0.51813614 0.30497134 4285133622
-0.98580128 0.51816887 0.30570272 4285133622
-0.97534674 0.51570523 0.30466011 4285133622
-0.96491599 0.51466662 0.30486184 4285133622
-0.95393175 0.51636082 0.30050644 4285133622
-0.94219303 0.51855212 0.30328536 4285133622
-0.93469673 0.51779103 0.30555406 4285133622
-0.92473972 0.51748335 0.30415413 4285133622
-0.91415787 0.51746762 0.30533552 4285133622
-0.90521717 0.51642507 0.30504838 4285133622
-0.89459509 0.51576018 0.30546898 4285133622
-0.88498497 0.51521909 0.30536988 4285133622
-0.87497544 0.51544333 0.30471691 4285133622
-0.86462778 0.5141024 0.30461395 4285133622
-0.85461813 0.51437593 0.30608401 4285133622
-0.8452571 0.51439607 0.30435631 4285133622
-0.8359704 0.51388979 0.30571365 4285133622
-0.82426947 0.51218456 0.3052679 4285133622
-0.81469595 0.51155925 0.30432421 4285133622
-0.80440021 0.51126546 0.30531237 4285133622
-0.79791123 0.51032132 0.30559617 4285133622
-1.1110629 0.52233756 0.30477381 4285133622
-1.1037304 0.52038717 0.3076461 4285133622
-1.0954232 0.52081454 0.30793071 4285133622
-1.0889668 0.52080029 0.30891731 4285133622
-1.0456741 0.52006108 0.30699703 4285133622
-1.0034844 0.52138525 0.30983463 4285133622
-0.94339323 0.52124667 0.30844206 4285133622
-1.0757283 0.56682694 0.30646029 4285133622
-1.0748525 0.57483846 0.30517852 4285133622
-1.0743604 0.58530873 0.30516377 4285133622
-1.0763146 0.59446198 0.30482221 4285133622
-1.075129 0.60506839 0.30552235 4285133622
-1.0731418 0.61418128 0.30545062 4285133622
-1.0687879 0.61834955 0.30388427 4285133622
-1.0743359 0.62552959 0.30542728 4285133622
-1.06902 0.62173212 0.30198649 4285133622
-1.0813003 0.63459873 0.30732855 4285133622
-1.0772389 0.63512641 0.30367285 4285133622
-1.0817218 0.64705127 0.3061595 4285133622
-1.0785669 0.64395523 0.30510351 4285133622
-1.0831652 0.65577078 0.30450308 4285133622
-1.0794511 0.65197033 0.3023237 4285133622
-1.0906227 0.66665184 0.30528855 4285133622
-1.0867946 0.66423899 0.30451009 4285133622
-1.0909694 0.67170668 0.30245245 4285133622
-1.088064 0.67511833 0.30452389 4285133622
-1.0915478 0.68648392 0.30298871 4285133622
-1.0874704 0.68404335 0.30692807 4285133622
-1.092312 0.69571 0.30645484 4285133622
-1.0883882 0.69537604 0.30234301 4285133622
-1.0915878 0.70623511 0.30704871 4285133622
-1.0876445 0.70563769 0.30308321 4285133622
-1.091565 0.71540236 0.30478397 4285133622
-1.0890568 0.71386051 0.30614877 4285133622
-1.1002992 0.72947305 0.30185452 4285133622
-1.0947553 0.72485185 0.30576843 4285133622
-1.0887737 0.72115386 0.30254212 4285133622
-1.1010062 0.73242438 0.30682442 4285133622
-1.0976206 0.73593801 0.30536959 4285133622
-1.0950603 0.74586445 0.30497849 4285133622
-1.1013211 0.75894445 0.30579877 4285133622
-1.0968363 0.75478202 0.30525181 4285133622
-1.1021886 0.7663492 0.30473813 4285133622
-1.0988328 0.76401782 0.30522189 4285133622
-1.1037333 0.77512473 0.30490011 4285133622
-1.1111202 0.78794378 0.30407014 4285133622
-1.1075786 0.78383666 0.3057335 4285133622
-1.1132257 0.7961868 0.30599833 4285133622
-1.1089207 0.79265797 0.30350059 4285133622
-1.1131527 0.80626661 0.30516568 4285133622
-1.1213112 0.81873584 0.30864608 4285133622
-1.1160697 0.81525898 0.30508304 4285133622
-1.123098 0.826195 0.30586648 4285133622
-1.1177098 0.82251656 0.30226982 4285133622
-1.1252335 0.8353861 0.3041665 4285133622
-1.1309791 0.84710312 0.30124024 4285133622
-1.1278927 0.84446615 0.3049131 4285133622
-1.1305419 0.85030448 0.30519471 4285133622
-1.1266305 0.85507387 0.30540112 4285133622
-1.1336873 0.86743343 0.30405027 4285133622
-1.1273934 0.86367184 0.30508405 4285133622
-1.1418551 0.87629771 0.30516031 4285133622
-1.1365687 0.87317061 0.30604598 4285133622
-0.64699334 0.40586337 0.31607461 4285133622
-0.64583886 0.41417962 0.31397021 4285133622
-0.64213645 0.42559358 0.31600365 4285133622
-0.63941085 0.4280135 0.31280798 4285133622
-0.64135957 0.43532899 0.31576088 4285133622
-0.63928896 0.43500185 0.3122707 4285133622
-0.64216852 0.44463027 0.31513354 4285133622
-0.64474648 0.45548242 0.31534949 4285133622
-0.65094131 0.46862149 0.31422922 4285133622
-0.6476053 0.46535012 0.31469551 4285133622
-0.6615957 0.47796708 0.31030929 4285133622
-0.65439105 0.47510782 0.3148354 4285133622
-0.64938843 0.47274095 0.3179881 4285133622
-0.68130606 0.48937866 0.31991073 4285133622
-0.67450267 0.48725307 0.3155092 4285133622
-0.66490149 0.483556 0.31482434 4285133622
-0.65920442 0.48095161 0.31589031 4285133622
-0.71153933 0.49865067 0.31333601 4285133622
-0.7047025 0.49764043 0.31518501 4285133622
-0.69436347 0.49432012 0.3142873 4285133622
-0.68514901 0.49167773 0.31577605 4285133622
-0.6786108 0.49104318 0.3137224 4285133622
-0.80245721 0.50834346 0.31186551 4285133622
-0.79397225 0.50879401 0.31582394 4285133622
-0.7863183 0.50904238 0.31467602 4285133622
-0.77406305 0.50836974 0.31328803 4285133622
-0.76530671 0.50732201 0.31430438 4285133622
-0.75403529 0.50586385 0.31511235 4285133622
-0.74518263 0.50311029 0.31450847 4285133622
-0.7351591 0.50332338 0.31593859 4285133622
-0.72484767 0.50264657 0.31437132 4285133622
-0.71546483 0.50057769 0.31508654 4285133622
-0.70891124 0.50126624 0.31848624 4285133622
-1.0959563 0.51851785 0.31807351 4285133622
-1.0850931 0.5189743 0.31552243 4285133622
-1.074392 0.51897115 0.31182405 4285133622
-1.0663999 0.5195114 0.31400257 4285133622
-1.0580668 0.519539 0.31127572 4285133622
-1.0431584 0.5173012 0.31205156 4285133622
-1.035058 0.51679701 0.31379285 4285133622
-1.0228041 0.51882529 0.31657031 4285133622
-1.0149982 0.51871979 0.31522852 4285133622
-0.9947474 0.51984185 0.31090015 4285133622
-0.98155999 0.51810652 0.31365749 4285133622
-0.97584289 0.51752681 0.31434754 4285133622
-0.96603501 0.51791245 0.3160947 4285133622
-0.95272273 0.51927292 0.31350625 4285133622
-0.94054407 0.51945955 0.31453303 4285133622
-0.93480462 0.51904875 0.31521338 4285133622
-0.92490631 0.51790506 0.31521058 4285133622
-0.91560525 0.51795673 0.31444266 4285133622
-0.90450054 0.51837796 0.31537554 4285133622
-0.89563417 0.51714689 0.31587884 4285133622
-0.88528359 0.51721436 0.31530952 4285133622
-0.87401885 0.51718801 0.31579506 4285133622
-0.86627364 0.51582509 0.31466672 4285133622
-0.85407132 0.51604128 0.31517345 4285133622
-0.84475315 0.51413578 0.31464955 4285133622
-0.8348009 0.51324475 0.31476969 4285133622
-0.82435375 0.51287645 0.31480849 4285133622
-0.81454378 0.51252735 0.3158679 4285133622
-0.80639589 0.51161909 0.3147682 4285133622
-0.79621398 0.51069695 0.31412324 4285133622
-0.78970104 0.51086062 0.31239074 4285133622
-0.77580941 0.51165092 0.31729609 4285133622
-0.76542294 0.51017213 0.318445 4285133622
-1.121612 0.52005398 0.31785378 4285133622
-1.1130211 0.52140081 0.31585264 4285133622
-1.1056136 0.52064741 0.31441185 4285133622
-1.0954727 0.52084029 0.31374952 4285133622
-1.084968 0.52129966 0.31390417 4285133622
-1.0719664 0.5218392 0.31703651 4285133622
-1.0663869 0.52190256 0.31894043 4285133622
-1.0530638 0.52152002 0.31583092 4285133622
-1.0466973 0.52060205 0.31587335 4285133622
-1.0396539 0.52033174 0.31637624 4285133622
-1.002489 0.52187818 0.31489834 4285133622
-0.99464399 0.52145863 0.31564274 4285133622
-0.98511469 0.52030408 0.31502002 4285133622
-0.97844809 0.5206061 0.31672966 4285133622
-0.95295411 0.52132046 0.31893206 4285133622
-0.9453339 0.52148801 0.31505185 4285133622
-0.93854022 0.52181172 0.31487355 4285133622
-1.0769937 0.56608009 0.31464297 4285133622
-1.0805233 0.57978106 0.31547499 4285133622
-1.0771132 0.57507211 0.31471485 4285133622
-1.0812382 0.58206737 0.31480727 4285133622
-1.0777853 0.58509624 0.31495938 4285133622
-1.0813962 0.59791481 0.31298494 4285133622
-1.076648 0.59421682 0.31496251 4285133622
-1.0814233 0.60255677 0.31329665 4285133622
-1.0772055 0.60601771 0.31478703 4285133622
-1.0759673 0.61538088 0.31476551 4285133622
-1.0807034 0.62797415 0.31291166 4285133622
-1.0770208 0.62453413 0.31576425 4285133622
-1.0825102 0.63509727 0.31519276 4285133622
-1.0788884 0.63175714 0.31457275 4285133622
-1.0825765 0.64476991 0.31503826 4285133622
-1.0819209 0.65558118 0.31375334 4285133622
-1.0787315 0.65588546 0.31684297 4285133622
-1.0826315 0.66491306 0.31458429 4285133622
-1.0795685 0.66580033 0.31684831 4285133622
-1.0836083 0.67491144 0.31442061 4285133622
-1.0846727 0.68499589 0.31564772 4285133622
-1.0920625 0.69644928 0.31380215 4285133622
-1.087539 0.69364887 0.31575015 4285133622
-1.0932038 0.70453393 0.31395945 4285133622
-1.0881623 0.7063899 0.31936124 4285133622
-1.093111 0.71502697 0.31486493 4285133622
-1.1012114 0.72640663 0.31290522 4285133622
-1.0978299 0.72395706 0.31536272 4285133622
-1.1013682 0.73307353 0.3142288 4285133622
-1.0984875 0.73609197 0.31542689 4285133622
-1.1011739 0.74741864 0.31567252 4285133622
-1.0974778 0.74511367 0.31401855 4285133622
-1.1025854 0.75546962 0.31441471 4285133622
-1.0994798 0.75252765 0.31594807 4285133622
-1.1034441 0.7646504 0.31529659 4285133622
-1.0987964 0.76326722 0.31105486 4285133622
-1.1103152 0.77792138 0.3144199 4285133622
-1.1057085 0.77495635 0.31527716 4285133622
-1.111834 0.78534526 0.31425744 4285133622
-1.1085275 0.78244072 0.31535307 4285133622
-1.1131941 0.79465055 0.31520513 4285133622
-1.1158621 0.8043707 0.31502381 4285133622
-1.1219743 0.81713563 0.31471205 4285133622
-1.1177064 0.8131761 0.31498173 4285133622
-1.1238402 0.82542038 0.31436014 4285133622
-1.1226043 0.83558649 0.31438646 4285133622
-1.1194334 0.83664393 0.31783581 4285133622
-1.1244042 0.84487551 0.31483588 4285133622
-1.1309249 0.85826039 0.31673777 4285133622
-1.1267138 0.85488552 0.31424537 4285133622
-1.1332744 0.86518008 0.31492144 4285133622
-1.1282037 0.86178362 0.31351909 4285133622
-1.141868 0.87696201 0.31419358 4285133622
-1.1365324 0.87346691 0.31514049 4285133622
-0.65029067 0.4026829 0.3231208 4285133622
-0.64830601 0.40483561 0.32377139 4285133622
-0.64519018 0.41431171 0.32528612 4285133622
-0.64193672 0.42594883 0.32487476 4285133622
-0.63955593 0.4274888 0.32625082 4285133622
-0.64112049 0.43469599 0.32488951 4285133622
-0.63989514 0.4365665 0.32624063 4285133622
-0.64319056 0.44524831 0.32477662 4285133622
-0.63950539 0.44113603 0.32721812 4285133622
-0.64602673 0.45538595 0.32505122 4285133622
-0.65102899 0.46715102 0.32465005 4285133622
-0.64853531 0.46443287 0.32462266 4285133622
-0.66095805 0.47932142 0.32654929 4285133622
-0.65436476 0.47570425 0.32539439 4285133622
-0.68201065 0.48890555 0.32341635 4285133622
-0.67604268 0.48681945 0.3247574 4285133622
-0.66458875 0.48385966 0.32515976 4285133622
-0.65812689 0.48188627 0.32287529 4285133622
-0.71357924 0.49935681 0.32700458 4285133622
-0.70513052 0.49826065 0.32495564 4285133622
-0.69484597 0.4960528 0.32508025 4285133622
-0.68592036 0.49278411 0.32501295 4285133622
-0.67892826 0.49181691 0.32706818 4285133622
-0.78112864 0.50996745 0.32940993 4285133622
-0.77895921 0.5099507 0.32702971 4285133622
-0.75354981 0.50825012 0.32456815 4285133622
-0.74471486 0.50707936 0.32498407 4285133622
-0.73465586 0.5048669 0.32615471 4285133622
-0.72583526 0.50267637 0.32415444 4285133622
-0.71588188 0.50194103 0.32424471 4285133622
-1.1235526 0.51628488 0.32239199 4285133622
-1.1142344 0.51811332 0.32067022 4285133622
-1.1058576 0.51768851 0.32445535 4285133622
-1.0939312 0.51893449 0.3233459 4285133622
-1.0243973 0.5181216 0.32524854 4285133622
-1.0153884 0.51803714 0.32531685 4285133622
-1.0040995 0.51817125 0.32689524 4285133622
-0.99451494 0.5173654 0.32570931 4285133622
-0.98483342 0.51856673 0.32776302 4285133622
-0.97636509 0.51872724 0.32372338 4285133622
-0.9642188 0.51917541 0.32219142 4285133622
-0.95747703 0.51922703 0.32309139 4285133622
-0.9438895 0.5199067 0.32602835 4285133622
-0.93432373 0.51836973 0.32455799 4285133622
-0.92476964 0.51849502 0.32527897 4285133622
-0.91553962 0.51882696 0.32506952 4285133622
-0.90544778 0.51903164 0.32491621 4285133622
-0.8939817 0.51931721 0.32510993 4285133622
-0.88575995 0.51804525 0.32481924 4285133622
-0.87534231 0.51725525 0.32463619 4285133622
-0.86273503 0.51767975 0.32559252 4285133622
-0.85513306 0.51645184 0.3241291 4285133622
-0.84463948 0.51591581 0.325342 4285133622
-0.83527493 0.51418328 0.3250165 4285133622
-0.82545203 0.51269543 0.32437852 4285133622
-0.81494719 0.51235437 0.32513702 4285133622
-0.80521041 0.5117498 0.32493308 4285133622
-0.79503351 0.51117045 0.32454488 4285133622
-0.78404075 0.51165605 0.32506967 4285133622
-0.77408361 0.51208347 0.32434502 4285133622
-0.76516914 0.5112642 0.32508713 4285133622
-0.75646174 0.51105708 0.32557923 4285133622
-0.74009556 0.51029342 0.3293018 4285133622
-1.1068621 0.52092659 0.32586136 4285133622
-1.0992626 0.52087981 0.32021359 4285133622
-1.0812886 0.52191114 0.32726452 4285133622
-1.0750965 0.52191657 0.32448363 4285133622
-1.0656704 0.52230209 0.32437074 4285133622
-1.054817 0.52234721 0.32550943 4285133622
-1.0457386 0.52119547 0.3244746 4285133622
-1.0353819 0.52107507 0.32495326 4285133622
-1.0276407 0.52124798 0.32521409 4285133622
-1.0015292 0.52017403 0.32625598 4285133622
-0.99577838 0.52089065 0.32293019 4285133622
-0.98466063 0.5205757 0.32157257 4285133622
-0.97433627 0.52107841 0.32403702 4285133622
-0.964701 0.5214982 0.32744876 4285133622
-0.95582569 0.5215407 0.32600313 4285133622
-0.94551426 0.52196884 0.32448289 4285133622
-0.93693495 0.52029127 0.32621235 4285133622
-0.90660924 0.52144766 0.32928288 4285133622
-1.082864 0.56741768 0.32592624 4285133622
-1.0787054 0.5668425 0.32170919 4285133622
-1.0809897 0.57443047 0.32748881 4285133622
-1.0775129 0.57557416 0.32292894 4285133622
-1.0755925 0.584934 0.3256858 4285133622
-1.0746126 0.59472913 0.32534197 4285133622
-1.0800325 0.60942101 0.32196125 4285133622
-1.0766741 0.60505527 0.32489341 4285133622
-1.0807389 0.61168033 0.32130146 4285133622
-1.0767936 0.61546731 0.32512563 4285133622
-1.0808017 0.62712127 0.32772604 4285133622
-1.0776123 0.62434918 0.32502395 4285133622
-1.0820817 0.63540804 0.32386085 4285133622
-1.0785404 0.63430542 0.32551596 4285133622
-1.0817652 0.64417458 0.32348019 4285133622
-1.078722 0.6465109 0.325836 4285133622
-1.0809351 0.65326595 0.32498592 4285133622
-1.0784674 0.65533036 0.32589769 4285133622
-1.0809535 0.66568923 0.32518968 4285133622
-1.0781329 0.66441208 0.32569584 4285133622
-1.0834129 0.6755302 0.32568139 4285133622
-1.0789814 0.67300969 0.32240221 4285133622
-1.0903286 0.68470001 0.32746479 4285133622
-1.0865484 0.68421888 0.32437596 4285133622
-1.0909621 0.69659209 0.32666147 4285133622
-1.0876843 0.69466066 0.32487386 4285133622
-1.090956 0.70634717 0.32381615 4285133622
-1.0878797 0.70446467 0.32525581 4285133622
-1.0933243 0.7155447 0.32610077 4285133622
-1.0892581 0.71479404 0.32331127 4285133622
-1.1011865 0.72740591 0.3203347 4285133622
-1.0965084 0.72455359 0.32559404 4285133622
-1.096175 0.73449844 0.32486361 4285133622
-1.1015537 0.74847525 0.32513005 4285133622
-1.0963821 0.74429601 0.32515803 4285133622
-1.1029352 0.75560361 0.32511994 4285133622
-1.0993636 0.75109917 0.32752025 4285133622
-1.1042222 0.76577514 0.32514974 4285133622
-1.1114429 0.77692103 0.32520205 4285133622
-1.1077263 0.77386618 0.32426509 4285133622
-1.1120833 0.78366983 0.32428789 4285133622
-1.1084164 0.78836405 0.32631618 4285133622
-1.1127474 0.79534191 0.32327443 4285133622
-1.1080267 0.79409611 0.32749778 4285133622
-1.1134354 0.80598783 0.32517919 4285133622
-1.1092005 0.80265868 0.32819557 4285133622
-1.115593 0.81476468 0.3251051 4285133622
-1.1210052 0.82653797 0.32600218 4285133622
-1.1175456 0.82442474 0.32454661 4285133622
-1.1218482 0.83572447 0.32512912 4285133622
-1.1189133 0.83365738 0.32610103 4285133622
-1.1236224 0.8459174 0.32504624 4285133622
-1.1197723 0.84121174 0.32339436 4285133622
-1.1311133 0.85738194 0.325598 4285133622
-1.1265002 0.85508263 0.32422611 4285133622
-1.1335604 0.86569083 0.32462355 4285133622
-1.1289469 0.86171657 0.3231484 4285133622
-1.1414747 0.87711859 0.32445148 4285133622
-1.1371707 0.87413621 0.32493949 4285133622
-0.6455391 0.4079732 0.33648303 4285133622
-0.64488333 0.41447175 0.33470204 4285133622
-0.64149415 0.42461318 0.33448508 4285133622
-0.63895667 0.42858535 0.33784127 4285133622
-0.64019495 0.43465018 0.33210739 4285133622
-0.63808572 0.43507695 0.33563876 4285133622
-0.64180046 0.44706312 0.33406705 4285133622
-0.63757771 0.44420311 0.33608991 4285133622
-0.65062368 0.45871109 0.33597043 4285133622
-0.6458413 0.45467466 0.3346664 4285133622
-0.65176308 0.46607566 0.33448347 4285133622
-0.64926285 0.46193308 0.33241928 4285133622
-0.66072154 0.47820857 0.33670887 4285133622
-0.65497088 0.47542858 0.3351917 4285133622
-0.6808871 0.48996639 0.33283311 4285133622
-0.67399979 0.48842829 0.33471969 4285133622
-0.66494155 0.48374611 0.33506671 4285133622
-0.65955782 0.48003322 0.33345538 4285133622
-0.71238536 0.49983954 0.33293501 4285133622
-0.70327735 0.49841642 0.33469218 4285133622
-0.69518036 0.49621409 0.33546251 4285133622
-0.68561161 0.49326193 0.3350555 4285133622
-0.67744017 0.49101642 0.33634329 4285133622
-0.78329802 0.5099842 0.33179012 4285133622
-0.76338863 0.50933748 0.33723709 4285133622
-0.7561996 0.50956273 0.33384678 4285133622
-0.74382758 0.50839174 0.33511114 4285133622
-0.7352435 0.50627744 0.334795 4285133622
-0.72504807 0.50408083 0.33447838 4285133622
-0.71524578 0.50293249 0.3362349 4285133622
-0.70461833 0.50116122 0.3364827 4285133622
-1.0987613 0.51907986 0.33051896 4285133622
-1.0401852 0.51895946 0.33564046 4285133622
-1.0351012 0.519072 0.33536121 4285133622
-1.024411 0.51867074 0.33462581 4285133622
-1.0131131 0.51782882 0.33444577 4285133622
-1.0055174 0.5180881 0.3346771 4285133622
-0.99504763 0.51708812 0.33263904 4285133622
-0.98529196 0.51833892 0.33583209 4285133622
-0.97549671 0.51928908 0.3351264 4285133622
-0.96558064 0.51938045 0.33448744 4285133622
-0.95439392 0.51984739 0.33494529 4285133622
-0.94863284 0.51994336 0.33123261 4285133622
-0.92401016 0.51884985 0.33518684 4285133622
-0.91593093 0.51888645 0.33309352 4285133622
-0.90074289 0.5198558 0.33516145 4285133622
-0.894831 0.51916111 0.33410591 4285133622
-0.88464487 0.51798111 0.33364344 4285133622
-0.87419468 0.51846188 0.33548427 4285133622
-0.86571574 0.51687169 0.334317 4285133622
-0.85488689 0.51672995 0.33542201 4285133622
-0.84532571 0.5156675 0.33502397 4285133622
-0.83493435 0.5144251 0.33476835 4285133622
-0.82372671 0.51427013 0.33418182 4285133622
-0.81424737 0.51360494 0.33481824 4285133622
-0.80475265 0.51348507 0.33450201 4285133622
-0.79466301 0.51325995 0.33575529 4285133622
-0.78640002 0.51152706 0.33503589 4285133622
-0.77416003 0.51108575 0.33496299 4285133622
-0.76488805 0.5111047 0.33452719 4285133622
-0.75057936 0.51229638 0.33958068 4285133622
-0.74474502 0.51044583 0.33609468 4285133622
-1.1053787 0.52119207 0.33161119 4285133622
-1.0948112 0.52455932 0.33659708 4285133622
-1.0837305 0.52399212 0.33556801 4285133622
-1.0760665 0.52264321 0.33520636 4285133622
-1.065161 0.52264583 0.33492082 4285133622
-1.0556372 0.52179146 0.33414108 4285133622
-1.0454208 0.52143431 0.33578834 4285133622
-1.0360445 0.52129102 0.33363903 4285133622
-1.0229864 0.52104384 0.33478227 4285133622
-1.0156989 0.52014351 0.33784497 4285133622
-0.9941895 0.52094793 0.33925596 4285133622
-0.98525912 0.52133632 0.33995739 4285133622
-0.9701885 0.52158409 0.3312836 4285133622
-0.96377611 0.52160203 0.33472613 4285133622
-0.95416278 0.52197367 0.33279732 4285133622
-0.94480896 0.52067697 0.33565626 4285133622
-0.93483561 0.52070534 0.33496547 4285133622
-0.92779958 0.52099144 0.33633602 4285133622
-0.91356832 0.52150136 0.33691823 4285133622
-0.90532476 0.52187097 0.33536708 4285133622
-0.89516467 0.52100945 0.33637244 4285133622
-0.88534039 0.52066118 0.33628792 4285133622
-1.0826283 0.56724721 0.33386803 4285133622
-1.0786016 0.567307 0.33910406 4285133622
-1.0823762 0.57193929 0.33384025 4285133622
-1.0777589 0.57596982 0.33535758 4285133622
-1.0806924 0.58688766 0.33703503 4285133622
-1.0774789 0.58398473 0.33444244 4285133622
-1.0808506 0.59474373 0.33625406 4285133622
-1.0776191 0.59478164 0.33509663 4285133622
-1.0802894 0.60589939 0.33662623 4285133622
-1.0772616 0.60461849 0.33481896 4285133622
-1.0810524 0.61481971 0.33583444 4285133622
-1.0779295 0.61503476 0.33387437 4285133622
-1.0772718 0.62552816 0.33503807 4285133622
-1.0808481 0.63693917 0.33663371 4285133622
-1.0776975 0.63472742 0.33553311 4285133622
-1.0808561 0.64808851 0.33386037 4285133622
-1.0776949 0.64439029 0.33492094 4285133622
-1.0825198 0.65539068 0.33617055 4285133622
-1.0791452 0.65411502 0.33461237 4285133622
-1.0830607 0.6653809 0.33764079 4285133622
-1.0782852 0.66470259 0.33428118 4285133622
-1.0847042 0.67533356 0.33491808 4285133622
-1.0790825 0.67219454 0.33112556 4285133622
-1.0900362 0.68658972 0.33403257 4285133622
-1.0870634 0.68512589 0.33492583 4285133622
-1.0913192 0.69559479 0.33690718 4285133622
-1.0881135 0.69422728 0.33452147 4285133622
-1.0923909 0.70595545 0.33441469 4285133622
-1.0885644 0.70395088 0.33484587 4285133622
-1.0950963 0.7149747 0.3354114 4285133622
-1.08977 0.7122193 0.33360779 4285133622
-1.1004688 0.7259568 0.33665252 4285133622
-1.0973341 0.72533554 0.33454555 4285133622
-1.1007518 0.73552901 0.33734462 4285133622
-1.0969943 0.73504353 0.33450875 4285133622
-1.1023713 0.74433786 0.33600321 4285133622
-1.0982331 0.74238497 0.33182251 4285133622
-1.101943 0.75466651 0.33479741 4285133622
-1.0992248 0.75434047 0.3358247 4285133622
-1.1034559 0.76502967 0.33439642 4285133622
-1.0998131 0.76463115 0.33801436 4285133622
-1.1110624 0.77530217 0.33147848 4285133622
-1.1056876 0.77466756 0.33607545 4285133622
-1.111325 0.78625762 0.33389756 4285133622
-1.1083703 0.78357679 0.33538309 4285133622
-1.1118804 0.79460645 0.33627576 4285133622
-1.1081891 0.79412764 0.33324826 4285133622
-1.1120976 0.80514735 0.33616304 4285133622
-1.1086839 0.803868 0.33494967 4285133622
-1.120589 0.81870234 0.33862564 4285133622
-1.1156192 0.81510562 0.33508644 4285133622
-1.1216677 0.82550108 0.33548579 4285133622
-1.1183012 0.82518148 0.33359781 4285133622
-1.1227537 0.83543074 0.3340961 4285133622
-1.118515 0.83378494 0.33612522 4285133622
-1.1222718 0.84446359 0.33504951 4285133622
-1.1236743 0.8547383 0.33533645 4285133622
-1.1198437 0.85000473 0.33244231 4285133622
-1.131287 0.86662591 0.33123446 4285133622
-1.1267844 0.86435831 0.33544934 4285133622
-1.1344383 0.87607384 0.33462709 4285133622
-1.1281136 0.87131464 0.33608231 4285133622
-0.64527005 0.40960988 0.34619749 4285133622
-0.64554721 0.41401169 0.34499538 4285133622
-0.64132226 0.42382622 0.34239936 4285133622
-0.63859922 0.42623481 0.34649742 4285133622
-0.63793468 0.43464357 0.34507844 4285133622
-0.6416046 0.44623691 0.34806201 4285133622
-0.63803691 0.44497445 0.34402776 4285133622
-0.6505028 0.45603919 0.34118015 4285133622
-0.64529163 0.45436126 0.34508419 4285133622
-0.63844955 0.45140886 0.34217489 4285133622
-0.652619 0.46671417 0.3456184 4285133622
-0.64874506 0.46255854 0.34399483 4285133622
-0.66137981 0.47846594 0.34504002 4285133622
-0.65685481 0.47463727 0.34472197 4285133622
-0.68024993 0.48907158 0.34484029 4285133622
-0.6741426 0.48773673 0.34496164 4285133622
-0.66570187 0.48252234 0.34464443 4285133622
-0.70408964 0.49724022 0.34460115 4285133622
-0.69427288 0.49522698 0.34409335 4285133622
-0.68464673 0.49287534 0.34526023 4285133622
-0.67883283 0.4912366 0.34513748 4285133622
-0.76486921 0.50954217 0.34197578 4285133622
-0.75429904 0.5086301 0.34717044 4285133622
-0.74477422 0.50857764 0.3451151 4285133622
-0.73592621 0.50677484 0.34432024 4285133622
-0.72554326 0.50584334 0.34561324 4285133622
-0.71429741 0.50478536 0.3451122 4285133622
-0.7075879 0.50205666 0.34525514 4285133622
-1.0893086 0.51978016 0.34555343 4285133622
-1.0428711 0.51920789 0.34653553 4285133622
-1.0350349 0.51931041 0.34322944 4285133622
-0.92369419 0.51894641 0.34161121 4285133622
-0.8904897 0.51835054 0.34262472 4285133622
-0.88393342 0.5188092 0.34441414 4285133622
-0.87442458 0.51911336 0.34567839 4285133622
-0.86566347 0.51748854 0.34462434 4285133622
-0.85451806 0.51594728 0.34443694 4285133622
-0.84567624 0.5158655 0.34463635 4285133622
-0.83480132 0.51550066 0.34489715 4285133622
-0.82492226 0.51600635 0.34469435 4285133622
-0.81471092 0.51619357 0.34465161 4285133622
-0.80522174 0.51522237 0.34492841 4285133622
-0.79478264 0.51363367 0.34514514 4285133622
-0.78508258 0.51210523 0.34481597 4285133622
-0.77476978 0.51164114 0.34524208 4285133622
-0.76522672 0.51151735 0.34569824 4285133622
-0.7558735 0.51046258 0.34525847 4285133622
-0.74859184 0.51023889 0.3423422 4285133622
-1.1148674 0.52153045 0.3467091 4285133622
-1.1044843 0.52296221 0.34730333 4285133622
-1.093899 0.52459806 0.34533784 4285133622
-1.0859987 0.52343148 0.34322262 4285133622
-1.0756099 0.52300966 0.34389254 4285133622
-1.0625777 0.52473259 0.34531298 4285133622
-1.0551399 0.52435619 0.345651 4285133622
-1.0447804 0.52274269 0.3450402 4285133622
-1.0350275 0.52188623 0.34508839 4285133622
-1.0244682 0.52015126 0.34577051 4285133622
-1.0150506 0.52042681 0.34504342 4285133622
-1.0055095 0.52076554 0.34510326 4285133622
-0.99368513 0.52268219 0.34636348 4285133622
-0.98495358 0.52181834 0.34518138 4285133622
-0.97410882 0.5223462 0.34529307 4285133622
-0.96547478 0.52201968 0.3444255 4285133622
-0.95502281 0.52218926 0.3449384 4285133622
-0.94551897 0.52238721 0.34566864 4285133622
-0.9350571 0.52215666 0.34461972 4285133622
-0.92476654 0.52132827 0.3453232 4285133622
-0.91365796 0.52204365 0.34638348 4285133622
-0.904773 0.52207625 0.34592268 4285133622
-0.89566857 0.52112985 0.34469524 4285133622
-0.8846435 0.52103239 0.3458046 4285133622
-0.87548077 0.52105522 0.34216648 4285133622
-1.0824497 0.56488913 0.34589595 4285133622
-1.0793872 0.56657177 0.34448454 4285133622
-1.0806692 0.57449126 0.3449018 4285133622
-1.0777141 0.57490653 0.34449336 4285133622
-1.081481 0.5857473 0.34402552 4285133622
-1.0777658 0.58491421 0.34547153 4285133622
-1.0809407 0.59360075 0.34112772 4285133622
-1.0773356 0.59532034 0.34658086 4285133622
-1.0762093 0.60424209 0.34489301 4285133622
-1.080721 0.61737549 0.34355384 4285133622
-1.0757304 0.61493069 0.34545541 4285133622
-1.081112 0.62782979 0.345422 4285133622
-1.0777729 0.62529427 0.34436789 4285133622
-1.081189 0.63423032 0.34547839 4285133622
-1.0785933 0.63517511 0.34505099 4285133622
-1.081511 0.64485103 0.34311774 4285133622
-1.0787095 0.64406985 0.34538352 4285133622
-1.0834324 0.65473956 0.34487447 4285133622
-1.0781631 0.65508652 0.34747919 4285133622
-1.0845773 0.66429299 0.34575313 4285133622
-1.0839885 0.67531997 0.34456268 4285133622
-1.0866519 0.68473524 0.34497219 4285133622
-1.0916237 0.69694024 0.34537867 4285133622
-1.0878958 0.69432718 0.34524614 4285133622
-1.0942352 0.70486563 0.34482935 4285133622
-1.089555 0.70129371 0.34032694 4285133622
-1.0958785 0.71455061 0.34498945 4285133622
-1.0959175 0.72504663 0.34445685 4285133622
-1.1021601 0.73779458 0.3412312 4285133622
-1.0971719 0.73461765 0.34597638 4285133622
-1.1010003 0.74353129 0.34466329 4285133622
-1.0979314 0.74583125 0.34573105 4285133622
-1.0973302 0.75493574 0.34549731 4285133622
-1.1018766 0.76576656 0.34451139 4285133622
-1.0982671 0.76356536 0.34508231 4285133622
-1.1038024 0.77508223 0.34532174 4285133622
-1.0995016 0.77136374 0.34552458 4285133622
-1.1114203 0.78765965 0.3466661 4285133622
-1.1074786 0.78447556 0.3450689 4285133622
-1.111855 0.79428142 0.34364888 4285133622
-1.1088443 0.79595238 0.34594694 4285133622
-1.1110537 0.8063125 0.34490749 4285133622
-1.1083814 0.80490977 0.34603041 4285133622
-1.121828 0.81763971 0.34066755 4285133622
-1.1143811 0.8145625 0.34510237 4285133622
-1.1204302 0.82439744 0.34291777 4285133622
-1.1177531 0.82433647 0.34522176 4285133622
-1.1207809 0.83651257 0.34408858 4285133622
-1.1176478 0.83446211 0.34531331 4285133622
-1.1220472 0.8453756 0.34580338 4285133622
-1.1187845 0.84403616 0.3431682 4285133622
-1.1246647 0.85529745 0.34483334 4285133622
-1.1306098 0.86836481 0.34071127 4285133622
-1.1276398 0.86463106 0.3441315 4285133622
-1.131315 0.87647194 0.34187657 4285133622
-1.1292943 0.8730489 0.3427538 4285133622
-0.64683366 0.4087384 0.3537631 4285133622
-0.64590371 0.41500103 0.35544118 4285133622
-0.64235532 0.42472714 0.35625663 4285133622
-0.63826466 0.4283452 0.35301319 4285133622
-0.64147532 0.43586531 0.35670054 4285133622
-0.63812447 0.43436363 0.35266891 4285133622
-0.6444065 0.44513783 0.35501769 4285133622
-0.63971263 0.44043237 0.35055536 4285133622
-0.65024149 0.45624316 0.35694858 4285133622
-0.64784956 0.45514506 0.35480055 4285133622
-0.65362805 0.46626937 0.35501695 4285133622
-0.64906698 0.46219566 0.35463929 4285133622
-0.66156077 0.47692335 0.35472825 4285133622
-0.6581549 0.47231743 0.35476145 4285133622
-0.67269832 0.48798561 0.35375509 4285133622
-0.66609806 0.48407331 0.3550289 4285133622
-0.70487911 0.4992061 0.35304496 4285133622
-0.69297588 0.49768987 0.35483518 4285133622
-0.68620348 0.49394897 0.35477081 4285133622
-0.6764183 0.49112305 0.35584447 4285133622
-0.76043391 0.50845087 0.35531759 4285133622
-0.75506926 0.50809002 0.35489556 4285133622
-0.74414438 0.5087508 0.35504124 4285133622
-0.73472524 0.50795931 0.35419494 4285133622
-0.72541773 0.50662023 0.35517451 4285133622
-0.7147187 0.5047884 0.35501641 4285133622
-0.70668799 0.50187534 0.35542026 4285133622
-0.6948995 0.50044739 0.35596839 4285133622
-0.68872905 0.50056231 0.35496232 4285133622
-1.1034467 0.51977444 0.35304523 4285133622
-1.0960636 0.51983231 0.35296488 4285133622
-1.0527661 0.51928425 0.35739204 4285133622
-1.0453429 0.51937979 0.35420841 4285133622
-1.0164583 0.51837599 0.35194707 4285133622
-0.91467291 0.51997811 0.35367301 4285133622
-0.88311255 0.51891237 0.3563351 4285133622
-0.87477744 0.51877171 0.35579416 4285133622
-0.86449283 0.51867926 0.35498562 4285133622
-0.85545826 0.51798481 0.35458925 4285133622
-0.84459078 0.51870745 0.35540172 4285133622
-0.83515036 0.51770872 0.35513169 4285133622
-0.82508725 0.51671559 0.35552362 4285133622
-0.81556672 0.51586872 0.35470396 4285133622
-0.80442363 0.51566261 0.35593945 4285133622
-0.79559392 0.51476735 0.35416591 4285133622
-0.78541839 0.51341069 0.35517752 4285133622
-0.77551436 0.51312286 0.35488087 4285133622
-0.76495183 0.51224309 0.354992 4285133622
-0.75962585 0.51036412 0.35320896 4285133622
-1.1204696 0.52512151 0.35868999 4285133622
-1.1148425 0.52326393 0.35492986 4285133622
-1.1058863 0.52263755 0.35570958 4285133622
-1.0936961 0.5219968 0.35626125 4285133622
-1.0852621 0.52177852 0.35531396 4285133622
-1.0756856 0.52258795 0.3549197 4285133622
-1.0645487 0.5244056 0.35497725 4285133622
-1.0551406 0.52339852 0.35449892 4285133622
-1.0488744 0.52262235 0.35097772 4285133622
-1.0340019 0.52045822 0.35478148 4285133622
-1.0250175 0.52041471 0.35360759 4285133622
-1.0161028 0.52152759 0.35494423 4285133622
-1.0052407 0.52114576 0.35400704 4285133622
-0.99589187 0.52189904 0.35423088 4285133622
-0.98563558 0.52353173 0.35516074 4285133622
-0.97650832 0.52288592 0.35441524 4285133622
-0.96570051 0.52278626 0.35470757 4285133622
-0.95452362 0.522457 0.35554817 4285133622
-0.94474465 0.52217561 0.35587564 4285133622
-0.93570602 0.52220929 0.35415936 4285133622
-0.92526168 0.52287066 0.35554302 4285133622
-0.91642809 0.52135885 0.35569936 4285133622
-0.90515411 0.52071822 0.35404149 4285133622
-0.89490116 0.52103347 0.35500464 4285133622
-0.88506991 0.521146 0.35375586 4285133622
-1.0961125 0.55712563 0.35517296 4285133622
-1.0867609 0.55982918 0.35285726 4285133622
-1.083023 0.56587535 0.35388064 4285133622
-1.0804988 0.57114315 0.35493889 4285133622
-1.0765676 0.57485777 0.35501009 4285133622
-1.0729764 0.58430439 0.35594943 4285133622
-1.0687089 0.58946538 0.35617822 4285133622
-1.0749184 0.59473234 0.35585982 4285133622
-1.0685897 0.59168291 0.35463491 4285133622
-1.0809089 0.60508889 0.35967663 4285133622
-1.0757239 0.60473001 0.35457605 4285133622
-1.0802151 0.61611038 0.359988 4285133622
-1.0760696 0.61497641 0.35563537 4285133622
-1.0762975 0.62474942 0.35466653 4285133622
-1.080195 0.63158059 0.35011628 4285133622
-1.075444 0.63482809 0.35610867 4285133622
-1.0805535 0.64893073 0.35565144 4285133622
-1.0766827 0.64482969 0.35480586 4285133622
-1.0819169 0.65646845 0.35456201 4285133622
-1.0788244 0.65428472 0.35600248 4285133622
-1.0834415 0.66535866 0.35545647 4285133622
-1.0905046 0.67617607 0.35736525 4285133622
-1.0861217 0.67462206 0.35390958 4285133622
-1.0900865 0.68573678 0.3589105 4285133622
-1.0864135 0.68551999 0.35543206 4285133622
-1.0911483 0.69749063 0.35475543 4285133622
-1.0880328 0.69331896 0.35465235 4285133622
-1.0934094 0.70561981 0.35315105 4285133622
-1.0883796 0.70471221 0.35816696 4285133622
-1.094188 0.71530902 0.35557353 4285133622
-1.09297 0.725766 0.35500404 4285133622
-1.0894239 0.72554415 0.35549673 4285133622
-1.0957594 0.73497993 0.3553153 4285133622
-1.1013182 0.746207 0.35544986 4285133622
-1.0979964 0.74458492 0.3540667 4285133622
-1.1016282 0.75620151 0.35671228 4285133622
-1.0977782 0.75580388 0.35353175 4285133622
-1.1024805 0.76595956 0.35571688 4285133622
-1.0982758 0.76501751 0.35399479 4285133622
-1.1109676 0.77788532 0.35400912 4285133622
-1.1069658 0.77445668 0.35447919 4285133622
-1.1112989 0.7827127 0.35130066 4285133622
-1.1073394 0.78504103 0.35590193 4285133622
-1.1056483 0.79467499 0.35526192 4285133622
-1.1108867 0.80628598 0.35849851 4285133622
-1.1066315 0.80416316 0.3547557 4285133622
-1.1130427 0.81566131 0.35544524 4285133622
-1.1088759 0.8125267 0.35230911 4285133622
-1.115316 0.82481307 0.35518157 4285133622
-1.1203299 0.83807874 0.35190147 4285133622
-1.1180146 0.83395761 0.35321885 4285133622
-1.1214342 0.84518874 0.35182908 4285133622
-1.1194632 0.84284806 0.35114703 4285133622
-1.1236665 0.8513366 0.350375 4285133622
-0.64522552 0.40933695 0.3626703 4285133622
-0.64359778 0.4155407 0.36536667 4285133622
-0.64305884 0.4256981 0.36576071 4285133622
-0.64283717 0.43559942 0.36484531 4285133622
-0.64377326 0.44509128 0.36553133 4285133622
-0.6507594 0.45802999 0.3636657 4285133622
-0.64700246 0.45428902 0.36517951 4285133622
-0.65271544 0.46610376 0.36445776 4285133622
-0.64869356 0.46264899 0.36896914 4285133622
-0.66205323 0.47882658 0.36206266 4285133622
-0.65691543 0.47467735 0.365392 4285133622
-0.67137307 0.48768982 0.3623744 4285133622
-0.66548175 0.4853366 0.36519259 4285133622
-0.65878671 0.48264173 0.3685779 4285133622
-0.70033264 0.49880901 0.36886677 4285133622
-0.69457632 0.49673027 0.36429939 4285133622
-0.68351012 0.49572632 0.36564329 4285133622
-0.67483181 0.49331689 0.36560121 4285133622
-0.75240177 0.50959384 0.36629429 4285133622
-0.74544114 0.50963539 0.36461246 4285133622
-0.73418999 0.50826073 0.36502925 4285133622
-0.72471094 0.50638789 0.36501065 4285133622
-0.71526825 0.50526464 0.3649357 4285133622
-0.70471269 0.50281125 0.36521092 4285133622
-0.69893175 0.5010981 0.36343762 4285133622
-1.0487864 0.51949805 0.36096311 4285133622
-0.91628349 0.51848483 0.36449185 4285133622
-0.88470191 0.51954859 0.3626762 4285133622
-0.87527198 0.51828301 0.36409631 4285133622
-0.86555457 0.51822424 0.36499724 4285133622
-0.85395479 0.51855564 0.36481646 4285133622
-0.84471375 0.51730359 0.36543143 4285133622
-0.83500236 0.51607031 0.36417961 4285133622
-0.82459432 0.51583594 0.36515981 4285133622
-0.81570107 0.51599395 0.36511362 4285133622
-0.8051095 0.51619893 0.36482063 4285133622
-0.79485911 0.51525164 0.36534941 4285133622
-0.7858445 0.51392275 0.36446157 4285133622
-0.77388978 0.51300341 0.36596328 4285133622
-0.76451129 0.51166505 0.36494082 4285133622
-0.7557404 0.51123232 0.36492825 4285133622
-0.74567527 0.51052743 0.36713514 4285133622
-0.73744249 0.51047236 0.36834845 4285133622
-1.1130058 0.52478367 0.36578649 4285133622
-1.1042455 0.52343434 0.36575857 4285133622
-1.094084 0.52329528 0.36476463 4285133622
-1.0855321 0.52421862 0.36486816 4285133622
-1.0753409 0.52458006 0.36613074 4285133622
-1.0653182 0.52378172 0.36489376 4285133622
-1.0546432 0.52339745 0.36509714 4285133622
-1.0455714 0.52285677 0.36730573 4285133622
-1.0344714 0.52255076 0.36610633 4285133622
-1.0247078 0.52312887 0.36509418 4285133622
-1.0147097 0.52348685 0.36475065 4285133622
-1.005692 0.52351916 0.36455509 4285133622
-0.99570978 0.52516323 0.36441541 4285133622
-0.98419762 0.52656186 0.36390203 4285133622
-0.97667927 0.52510291 0.3652164 4285133622
-0.96481913 0.52520818 0.36449561 4285133622
-0.95594484 0.52455854 0.36583501 4285133622
-0.94849283 0.52284265 0.36484227 4285133622
-0.93381506 0.52436793 0.36526877 4285133622
-0.92500573 0.5221591 0.36505947 4285133622
-0.9160316 0.52081561 0.3648884 4285133622
-0.9052493 0.52102256 0.36420387 4285133622
-0.89564502 0.52142626 0.36480051 4285133622
-0.88587409 0.5218026 0.36609396 4285133622
-0.87563759 0.52055031 0.36855885 4285133622
-1.0759132 0.56795394 0.36555833 4285133622
-1.0807528 0.57455134 0.36114204 4285133622
-1.0761917 0.57504392 0.36526445 4285133622
-1.0757145 0.58560365 0.36520153 4285133622
-1.0765001 0.5954451 0.36473435 4285133622
-1.0807624 0.60654277 0.36398485 4285133622
-1.0778404 0.60503995 0.36489511 4285133622
-1.0804527 0.61169213 0.36306286 4285133622
-1.0767002 0.61536932 0.36548865 4285133622
-1.0743617 0.62436187 0.36542195 4285133622
-1.0753822 0.63446069 0.36523491 4285133622
-1.0812829 0.64617336 0.36630377 4285133622
-1.0766692 0.64447951 0.36454582 4285133622
-1.0817164 0.65635222 0.36502215 4285133622
-1.0785725 0.65422636 0.36538363 4285133622
-1.0825619 0.66580844 0.36510381 4285133622
-1.0793853 0.6617142 0.36241141 4285133622
-1.09165 0.67747867 0.3658914 4285133622
-1.0870032 0.67441159 0.36476737 4285133622
-1.0911001 0.68298578 0.36455384 4285133622
-1.0877353 0.68673003 0.3650389 4285133622
-1.0859723 0.69610906 0.36532199 4285133622
-1.091179 0.70761794 0.36884418 4285133622
-1.0871284 0.70484221 0.36513549 4285133622
-1.091827 0.71526968 0.36530909 4285133622
-1.0886523 0.71388394 0.36409336 4285133622
-1.0940726 0.72556049 0.36518404 4285133622
-1.1001074 0.73813093 0.36735064 4285133622
-1.0965908 0.73450935 0.365275 4285133622
-1.1006962 0.74671286 0.36253563 4285133622
-1.0974907 0.74391955 0.36497056 4285133622
-1.1010736 0.75661081 0.36451173 4285133622
-1.0971978 0.75454181 0.36527488 4285133622
-1.1029931 0.76504141 0.36436832 4285133622
-1.0996304 0.76336622 0.3658652 4285133622
-1.1036545 0.77473658 0.36474708 4285133622
-1.1044902 0.78541797 0.36300081 4285133622
-1.0958192 0.78610986 0.36930621 4285133622
-1.1062226 0.7954523 0.36370894 4285133622
-1.0982425 0.79139256 0.36861351 4285133622
-1.1047921 0.80519271 0.36362833 4285133622
-1.1120697 0.81425148 0.36120549 4285133622
-1.1062933 0.81166965 0.36187863 4285133622
-0.64354801 0.41614503 0.37459528 4285133622
-0.64402324 0.42503905 0.37504944 4285133622
-0.64441723 0.43510479 0.37491381 4285133622
-0.64473158 0.4458001 0.37539467 4285133622
-0.64723802 0.45545703 0.37466338 4285133622
-0.65150154 0.46616358 0.37441227 4285133622
-0.64897424 0.46293038 0.37589759 4285133622
-0.65378881 0.47546017 0.3752684 4285133622
-0.64990222 0.47290385 0.37995851 4285133622
-0.6714251 0.48858118 0.37103662 4285133622
-0.66375411 0.48691869 0.375554 4285133622
-0.65818012 0.48265198 0.37489 4285133622
-0.70336157 0.49907532 0.37446335 4285133622
-0.69521832 0.49884373 0.3742151 4285133622
-0.68428969 0.49685466 0.37523833 4285133622
-0.67514622 0.49328548 0.37495384 4285133622
-0.66793203 0.49063125 0.37721202 4285133622
-0.76090056 0.509754 0.37685364 4285133622
-0.75567985 0.50964057 0.37440938 4285133622
-0.74243206 0.50852257 0.3756282 4285133622
-0.73490739 0.50788081 0.37487149 4285133622
-0.72585166 0.50605857 0.3749752 4285133622
-0.71443826 0.50415671 0.37537774 4285133622
-0.70685929 0.50188529 0.37385222 4285133622
-0.69168597 0.50197786 0.37998071 4285133622
-0.68911147 0.50013876 0.37831432 4285133622
-1.0717313 0.51943064 0.37820029 4285133622
-1.063856 0.5192008 0.37641156 4285133622
-1.0586443 0.51957411 0.37177885 4285133622
-1.0431973 0.51827729 0.37338552 4285133622
-1.0367479 0.51853257 0.37420836 4285133622
-0.87377214 0.51812524 0.37290287 4285133622
-0.86516976 0.51894897 0.37602669 4285133622
-0.85376436 0.51920474 0.37379709 4285133622
-0.84531331 0.5180254 0.371277 4285133622
-0.83536035 0.51788056 0.37535319 4285133622
-0.82572675 0.51717049 0.37515208 4285133622
-0.81421798 0.5183869 0.37670317 4285133622
-0.80535293 0.51711023 0.37479186 4285133622
-0.79535049 0.51553518 0.37520632 4285133622
-0.78406447 0.51448035 0.37509385 4285133622
-0.7752111 0.51189673 0.37453514 4285133622
-0.76495397 0.51160932 0.37553293 4285133622
-0.75801247 0.51162845 0.37247729 4285133622
-0.74590492 0.51067394 0.37579277 4285133622
-1.121024 0.526923 0.37595898 4285133622
-1.1148132 0.52466762 0.37471229 4285133622
-1.1041933 0.52221704 0.37578318 4285133622
-1.095342 0.52201486 0.37436572 4285133622
-1.0844661 0.52332085 0.37472811 4285133622
-1.0757629 0.52313066 0.37462252 4285133622
-1.0650017 0.52286273 0.37264493 4285133622
-1.0542562 0.52104181 0.37377784 4285133622
-1.0445306 0.52100909 0.37473431 4285133622
-1.0329545 0.52213198 0.37582907 4285133622
-1.0248431 0.5221737 0.37495631 4285133622
-1.0148454 0.52434653 0.37428945 4285133622
-1.005924 0.52464122 0.37616679 4285133622
-0.99497962 0.52473158 0.37454137 4285133622
-0.98416466 0.5246985 0.37410879 4285133622
-0.97412252 0.52442139 0.37589723 4285133622
-0.96441054 0.5244571 0.37501752 4285133622
-0.95554858 0.52379119 0.37476617 4285133622
-0.94344449 0.52477431 0.37567389 4285133622
-0.93460304 0.52484769 0.37469569 4285133622
-0.92529142 0.52244395 0.37467337 4285133622
-0.91534483 0.52173245 0.37498608 4285133622
-0.90365428 0.52346861 0.37607297 4285133622
-0.89444572 0.52379656 0.37524241 4285133622
-0.88356519 0.52302349 0.3757211 4285133622
-0.8764345 0.52082586 0.37441188 4285133622
-0.86318237 0.52098566 0.37397847 4285133622
-0.8541044 0.52129751 0.37542927 4285133622
-0.84272999 0.52172738 0.37686384 4285133622
-0.8383655 0.52195227 0.37838504 4285133622
-1.0750207 0.56871593 0.37634498 4285133622
-1.0805585 0.57624602 0.37765399 4285133622
-1.0762539 0.57478189 0.37431812 4285133622
-1.080538 0.5845871 0.37636721 4285133622
-1.0778048 0.58498234 0.3744522 4285133622
-1.0808192 0.59732962 0.37261105 4285133622
-1.0776267 0.59474045 0.37451786 4285133622
-1.0765879 0.60528654 0.37478355 4285133622
-1.0747992 0.61495692 0.37579563 4285133622
-1.0813967 0.62913293 0.37727854 4285133622
-1.0759416 0.62501514 0.37462413 4285133622
-1.081213 0.63589931 0.37546578 4285133622
-1.0785035 0.63543624 0.37479791 4285133622
-1.0814688 0.64561158 0.37576893 4285133622
-1.0782448 0.64512539 0.37495339 4285133622
-1.0824555 0.65435082 0.37525353 4285133622
-1.0788232 0.65102315 0.37507311 4285133622
-1.0826874 0.66595227 0.37508735 4285133622
-1.079134 0.66262841 0.37611991 4285133622
-1.0910069 0.67642951 0.37232509 4285133622
-1.0849465 0.67477763 0.37536874 4285133622
-1.091836 0.68077511 0.37047201 4285133622
-1.087189 0.68506575 0.37565783 4285133622
-1.0908167 0.69670779 0.37539124 4285133622
-1.0873754 0.69471174 0.37429729 4285133622
-1.0912993 0.70524353 0.37678307 4285133622
-1.088313 0.70447481 0.37488076 4285133622
-1.092113 0.71498972 0.37489209 4285133622
-1.089157 0.71376777 0.37484017 4285133622
-1.0933712 0.72466534 0.37461469 4285133622
-1.0890287 0.72485417 0.37816131 4285133622
-1.094771 0.7349332 0.37492087 4285133622
-1.0943999 0.74498624 0.37396109 4285133622
-1.0893118 0.74642676 0.37930629 4285133622
-1.1014237 0.75617796 0.37187877 4285133622
-1.0953661 0.7543124 0.37496921 4285133622
-1.1019552 0.76233524 0.37259105 4285133622
-1.0979152 0.76676363 0.37306523 4285133622
-1.1004732 0.77716637 0.37203598 4285133622
-1.0985545 0.77433282 0.37172547 4285133622
-1.0965284 0.78443086 0.37115675 4285133622
-0.64273733 0.4149211 0.38449645 4285133622
-0.64223397 0.42392793 0.38465291 4285133622
-0.64270782 0.43492192 0.38526982 4285133622
-0.63997871 0.43602538 0.38602695 4285133622
-0.64396584 0.4451634 0.38488474 4285133622
-0.64640009 0.45500326 0.38444525 4285133622
-0.65082604 0.46463448 0.38138574 4285133622
-0.64774019 0.46472499 0.38627595 4285133622
-0.65102237 0.4758296 0.38499543 4285133622
-0.64868444 0.47406283 0.38626596 4285133622
-0.67044246 0.48831558 0.38388109 4285133622
-0.66486937 0.48668489 0.38481033 4285133622
-0.65532678 0.48282519 0.38525307 4285133622
-0.6498096 0.48044252 0.38476861 4285133622
-0.70111328 0.49949968 0.38061795 4285133622
-0.6915164 0.49838734 0.38531709 4285133622
-0.68357038 0.49823514 0.38577208 4285133622
-0.67458546 0.49374402 0.38477007 4285133622
-0.66891742 0.4910309 0.38505769 4285133622
-0.76175749 0.50965095 0.38271964 4285133622
-0.75967348 0.50963485 0.38043308 4285133622
-0.74237227 0.50900578 0.38577572 4285133622
-0.7357105 0.50755697 0.38475171 4285133622
-0.72530192 0.50650996 0.38468406 4285133622
-0.71503395 0.50522768 0.38470536 4285133622
-0.7046808 0.50304264 0.38508138 4285133622
-0.69468778 0.50112873 0.38516256 4285133622
-0.68872565 0.500678 0.38671795 4285133622
-1.0808017 0.51950073 0.38815203 4285133622
-1.0746442 0.51957542 0.38536486 4285133622
-1.0676806 0.5196439 0.38169327 4285133622
-0.86537015 0.51925075 0.38526365 4285133622
-0.8564145 0.51950586 0.38429549 4285133622
-0.84032512 0.51914632 0.38556859 4285133622
-0.83441812 0.51813275 0.38411844 4285133622
-0.82564932 0.51746899 0.38488302 4285133622
-0.81446743 0.51783687 0.38542143 4285133622
-0.80452436 0.51716393 0.38529706 4285133622
-0.7949999 0.51552296 0.38520405 4285133622
-0.78504807 0.51464146 0.38519838 4285133622
-0.77486658 0.51501781 0.38545451 4285133622
-0.76608706 0.51239365 0.38497835 4285133622
-0.75341064 0.51245344 0.38589931 4285133622
-0.74616492 0.51118237 0.38463107 4285133622
-1.1213678 0.52522385 0.38713121 4285133622
-1.1148109 0.52504021 0.38443649 4285133622
-1.1059523 0.52235413 0.38410875 4285133622
-1.0955834 0.52156246 0.38568491 4285133622
-1.0852813 0.52159101 0.38467652 4285133622
-1.0773827 0.52171975 0.3829712 4285133622
