# .PCD v0.7 - Point Cloud Data file format
VERSION 0.7
FIELDS x y z rgba
SIZE 4 4 4 4
TYPE F F F U
COUNT 1 1 1 1
WIDTH 1095
HEIGHT 1
VIEWPOINT 0 0 0 1 0 0 0
POINTS 1095
DATA ascii
-1.1249701 0.68471992 0.40561959 4279175986
-1.1256763 0.69449788 0.40503848 4279700531
-1.1334263 0.70466125 0.40422305 4279569460
-1.1261929 0.70124072 0.4057993 4279831602
-1.1272551 0.71575522 0.4054856 4279438646
-1.1279215 0.72475988 0.40557727 4279503928
-1.1358399 0.73667896 0.40629768 4279307574
-1.1285851 0.73399985 0.40488845 4279438905
-1.1364728 0.74535221 0.40603837 4279439159
-1.1293122 0.74482715 0.40208983 4279505210
-1.136525 0.75598007 0.40488911 4279505210
-1.1298372 0.7520228 0.40187466 4279242808
-1.1379205 0.76529247 0.40515205 4279373626
-1.1386647 0.77527303 0.40547827 4279374393
-1.1393209 0.78438163 0.40487131 4279701564
-1.1420554 0.79757863 0.40511167 4279438910
-1.139816 0.79138553 0.4040404 4279701054
-1.4890633 0.80829644 0.40188959 4281080913
-1.1479002 0.80535257 0.40533394 4279374398
-1.4893206 0.81182283 0.40178415 4280752973
-1.4785217 0.8130244 0.40750989 4280359757
-1.1565825 0.81451446 0.40464807 4279637057
-1.148324 0.81116033 0.40516028 4279505725
-1.164575 0.82709259 0.40636206 4280227140
-1.1572692 0.82412928 0.40377498 4280030531
-1.1651402 0.83503348 0.40556449 4280489284
-1.1742301 0.84837669 0.40877384 4280490054
-1.1658314 0.84465355 0.40485671 4280555333
-1.1746862 0.85565931 0.40560073 4280424775
-1.1663257 0.85194087 0.40316847 4280293957
-1.182598 0.86819303 0.40428472 4280229707
-1.1752605 0.86340284 0.40573859 4280425543
-1.2065952 0.87898874 0.40943444 4280950352
-1.1955905 0.87591934 0.40512478 4280099659
-1.1829263 0.87222469 0.40549988 4280099405
-1.1995907 0.88067603 0.40520945 4280425548
-1.5327626 0.32181498 0.41479027 4279372841
-1.5217007 0.33498797 0.41491508 4279372326
-1.534236 0.34200585 0.41418654 4282072909
-1.5224611 0.34476987 0.41645288 4280557361
-1.1158081 0.55685353 0.41605189 4282143322
-1.116414 0.56540984 0.4150669 4281355855
-1.1082122 0.5644787 0.41079658 4281881689
-1.1168476 0.57182628 0.41351888 4279178012
-1.1093502 0.57756507 0.41758698 4278977810
-1.1101295 0.58807832 0.4177514 4278716450
-1.1090432 0.58323294 0.41418704 4278388763
-1.1141597 0.596479 0.41664597 4279174693
-1.1035038 0.59533268 0.41229004 4278847269
-1.1172687 0.6042133 0.4150559 4279109159
-1.1039127 0.60064977 0.41294813 4278781222
-1.1202757 0.61781996 0.41496223 4279699499
-1.1198523 0.61236483 0.41413537 4279503146
-1.1208345 0.62562084 0.41431651 4279502891
-1.1215274 0.63472939 0.41515461 4279044909
-1.1222682 0.64466566 0.41547945 4278848044
-1.1229744 0.65444368 0.41489831 4278978861
-1.1237093 0.66451752 0.41459703 4279241776
-1.1244473 0.67432773 0.41517001 4279175986
-1.1325586 0.68917829 0.41496864 4279504178
-1.1252195 0.68470567 0.4154371 4279176243
-1.1330132 0.69566298 0.41404969 4279634994
-1.1259545 0.69477957 0.41513589 4279700530
-1.1335906 0.70361054 0.41370845 4279503666
-1.1267341 0.70445418 0.417734 4279569458
-1.1274247 0.71492743 0.41453347 4279373367
-1.1282126 0.72543544 0.41504422 4279372855
-1.1361849 0.73836696 0.41494793 4279438903
-1.1289346 0.73511535 0.41537344 4279438648
-1.1366831 0.74529755 0.41445068 4279636025
-1.1293547 0.74087191 0.41520134 4279373367
-1.137418 0.75501084 0.41517535 4279832633
-1.1381235 0.76442701 0.41561884 4279832121
-1.138862 0.77454573 0.41531625 4280422457
-1.1396003 0.78466457 0.4150137 4280618811
-1.1429266 0.79585117 0.41477326 4280422463
-1.1399424 0.79036593 0.41194296 4280094782
-1.4783158 0.80713344 0.41647953 4280886611
-1.1481808 0.8056367 0.41552129 4280422463
-1.4787637 0.81326938 0.41629604 4280164433
-1.1569157 0.81601006 0.41338673 4279767875
-1.1488005 0.81373459 0.416412 4280619584
-1.1647242 0.82588649 0.41571021 4280095556
-1.157397 0.82209641 0.41466862 4280161091
-1.1653661 0.8346805 0.41544724 4280161604
-1.1743928 0.84854144 0.41467962 4279244868
-1.1661147 0.8449403 0.41514042 4279900743
-1.1748227 0.85443336 0.41450346 4279900230
-1.1935412 0.86699194 0.41733503 4280623695
-1.182598 0.86435688 0.41538182 4280688458
-1.1753224 0.86148739 0.41370144 4280752711
-1.2147088 0.87717015 0.41819641 4280952661
-1.2065331 0.87568337 0.41655767 4281083217
-1.1948093 0.87344187 0.41345063 4280885837
-1.1829073 0.87015039 0.41075626 4280688205
-1.52142 0.32794482 0.42427734 4278978854
-1.5219021 0.33519199 0.42223027 4279175461
-1.5101886 0.33754668 0.42809245 4279306535
-1.5227307 0.3457469 0.42420262 4281150263
-1.5105855 0.34298742 0.42792976 4279306019
-1.1226718 0.55064911 0.42781165 4281226071
-1.1160483 0.55713379 0.4246656 4281356885
-1.1166621 0.56541884 0.42477879 4281815634
-1.1173973 0.57549274 0.42447755 4279572004
-1.1094801 0.57663584 0.42537102 4279506206
-1.1102792 0.58778787 0.42446303 4278781728
-1.1098245 0.58175832 0.42406878 4278781721
-1.1145027 0.59442598 0.42565855 4279109670
-1.1168857 0.60470045 0.42484719 4278913319
-1.1203023 0.61466211 0.42514375 4279044650
-1.1199431 0.61139053 0.42051676 4279306281
-1.1210074 0.62446332 0.42445695 4278913580
-1.1217823 0.63457751 0.4255982 4278717486
-1.1225175 0.64465147 0.42529699 4279044910
-1.1232524 0.65472531 0.42499575 4278979375
-1.1241125 0.66625851 0.42537272 4278979632
-1.1159606 0.6651454 0.42358628 4279045168
-1.1247227 0.67487311 0.4243933 4279045171
-1.1254975 0.68498737 0.42553455 4279634995
-1.1332924 0.69489384 0.42722735 4279634737
-1.1261328 0.69419861 0.4238154 4279896881
-1.13393 0.70422184 0.42524967 4279831604
-1.126891 0.70479095 0.42292124 4279962419
-1.134813 0.71589273 0.42613333 4279766585
-1.1275798 0.71419597 0.42273626 4279831607
-1.1355085 0.72529888 0.42621461 4279438391
-1.1282535 0.72376323 0.42148769 4279700278
-1.1363261 0.73650175 0.42587963 4279701305
-1.1292614 0.7362079 0.4250342 4279570233
-1.1368861 0.74443203 0.42491743 4279636024
-1.1376246 0.75455087 0.42461488 4279963705
-1.1383629 0.7646696 0.42431229 4280094265
-1.1391412 0.77482867 0.42545864 4279963962
-1.1401304 0.78787899 0.42651856 4279373882
-1.1397959 0.7839703 0.42470193 4279898427
-1.1418511 0.79509002 0.42454916 4279636285
-1.4782537 0.80382323 0.42361331 4281475918
-1.1483554 0.80446887 0.42575207 4279637057
-1.4790852 0.81521863 0.42327255 4280427090
-1.4680182 0.81389791 0.42577472 4280754258
-1.1573193 0.81796336 0.42357558 4280030021
-1.1490971 0.81463253 0.42544815 4280160577
-1.1649265 0.82609141 0.42305571 4280095557
-1.1578275 0.82426983 0.42526919 4280095812
-1.1497071 0.82197344 0.42814174 4280226371
-1.1656088 0.83492637 0.42426181 4280095554
-1.1746588 0.84826517 0.42591819 4280292932
-1.1663674 0.84494948 0.42503145 4280227653
-1.1751074 0.85472172 0.42483854 4279966280
-1.19467 0.86747372 0.42525047 4280230222
-1.182776 0.86316699 0.42580613 4279705159
-1.1755372 0.8606137 0.42466235 4279835463
-1.214572 0.87423885 0.4213092 4280952914
-1.2064674 0.87218922 0.42408791 4280952143
-1.1995553 0.87233824 0.4279407 4281148238
-1.5216718 0.32819986 0.43342137 4279503400
-1.5103477 0.33686808 0.43629962 4279437864
-1.5108727 0.34453773 0.43470582 4279372066
-1.5115298 0.35402086 0.43305779 4281089091
-1.5007769 0.35583681 0.43880552 4279771692
-1.5011717 0.36124727 0.43864375 4281287496
-1.1228714 0.55085117 0.43505624 4280701780
-1.1163832 0.55828202 0.4344793 4281029201
-1.1169006 0.56566024 0.43343368 4281618769
-1.1091328 0.56806284 0.43654361 4281815634
-1.1174512 0.57421452 0.43029055 4279046942
-1.1097262 0.57605153 0.43671513 4278787365
-1.1104029 0.58582956 0.43498638 4278715933
-1.1099941 0.58086908 0.43328801 4278387218
-1.1150271 0.59415919 0.43489423 4278847525
-1.1201304 0.60891461 0.43502772 4278978342
-1.1181252 0.60330749 0.43554005 4279044391
-1.1205506 0.61467111 0.43485558 4279241258
-1.121224 0.62423843 0.43360704 4279109931
-1.1136 0.62827873 0.43761575 4279437610
-1.1219412 0.63473845 0.43136814 4278848301
-1.1141326 0.6359784 0.43623644 4279109931
-1.1227553 0.64569193 0.43161812 4279372077
-1.1148796 0.64601719 0.4365108 4279437356
-1.1234114 0.65488625 0.43076572 4279241262
-1.1156211 0.65585101 0.43715039 4279306799
-1.1243292 0.66606784 0.43442923 4279307056
-1.1161075 0.66264206 0.4365882 4279307056
-1.1250008 0.67515475 0.43449071 4279372595
-1.1331173 0.68974417 0.43525341 4279700529
-1.1257757 0.68526894 0.43563196 4279831091
-1.1335393 0.69552624 0.43508053 4279635251
-1.1341558 0.70384824 0.43519425 4279766325
-1.1274815 0.70965368 0.43201545 4280094006
-1.1349561 0.71570313 0.43230203 4279897657
-1.1279374 0.71455806 0.43571866 4279700791
-1.1358342 0.72596335 0.43707067 4279177272
-1.1286955 0.72539568 0.4341113 4279373112
-1.1364537 0.73462313 0.43632841 4279439159
-1.1295165 0.7370373 0.43264031 4279439160
-1.1371657 0.74471498 0.43505982 4279570231
-1.1379039 0.75483376 0.43475729 4279832632
-1.1386422 0.76495242 0.43445468 4279897913
-1.1394205 0.77511162 0.43560109 4279832892
-1.1428528 0.78583968 0.43592322 4279505470
-1.1399081 0.78229892 0.433936 4279504955
-1.1561911 0.7979008 0.43735057 4279309377
-1.1459019 0.79410386 0.43460205 4279177790
-1.1568832 0.80738604 0.43706691 4280095043
-1.1486223 0.80527699 0.43388456 4279702338
-1.4682039 0.8147316 0.43064585 4280229711
-1.4585118 0.81744349 0.43607748 4279966541
-1.157469 0.81541204 0.43682694 4279898690
-1.1492575 0.81479484 0.4312695 4279963713
-1.4587648 0.82091135 0.43597379 4279967054
-1.1653978 0.8279258 0.43623376 4279833410
-1.1581464 0.82524621 0.43495643 4279964739
-1.1497872 0.82205462 0.43105242 4280291907
-1.165892 0.8352133 0.43454555 4280096066
-1.1586144 0.83008629 0.43931594 4279506241
-1.1748546 0.84764498 0.43539381 4280162373
-1.1665744 0.84404826 0.43575168 4280293701
-1.175392 0.85500997 0.43517363 4280359752
-1.1945344 0.86778355 0.43302321 4280360524
-1.183165 0.86538768 0.43464431 4279902025
-1.1759243 0.86209679 0.43555275 4279966534
-1.2001711 0.87711287 0.43828952 4281147467
-1.1974779 0.87272185 0.43527851 4281081161
-1.2005395 0.88163674 0.43965304 4280689235
-1.5104568 0.33613878 0.442689 4279044647
-1.5108539 0.3415795 0.44252634 4278913318
-1.4892894 0.34698093 0.44661093 4279044647
-1.5007448 0.35413417 0.44247487 4279114023
-1.4901842 0.35840616 0.44866809 4278913820
-1.4898129 0.35415462 0.44639641 4278848035
-1.5014029 0.36315161 0.44220525 4282206800
-1.4906476 0.36496529 0.44787225 4281351235
-1.4909906 0.37029544 0.44591376 4282864473
-1.1231108 0.55109364 0.44374967 4281618002
-1.1165882 0.55734736 0.44523183 4282076753
-1.1167983 0.56022555 0.44514576 4282274645
-1.1093699 0.56830299 0.44515452 4281290062
-1.1101012 0.57832569 0.44485483 4278849823
-1.1097878 0.57403028 0.44498327 4279446835
-1.1106238 0.58548468 0.44464076 4278453533
-1.1113918 0.59580976 0.44490656 4278716198
-1.1202564 0.60690975 0.44577098 4278848040
-1.1142912 0.60247934 0.44492078 4278847783
-1.1208287 0.61495274 0.44495305 4279241257
-1.121567 0.62472242 0.44566038 4279241257
-1.1136789 0.62835884 0.44048607 4279437609
-1.1143765 0.63657916 0.44407046 4279044649
-1.1150043 0.64489877 0.44463202 4279044653
-1.1239535 0.65676796 0.44659007 4278914096
-1.1157179 0.65429145 0.44545597 4278914095
-1.1245798 0.66576231 0.44513988 4279045425
-1.1162655 0.66280222 0.44232881 4278980145
-1.1252789 0.67543638 0.44458812 4279175986
-1.1332622 0.68828428 0.44515792 4279045425
-1.1259431 0.6846388 0.44402424 4279372851
-1.1337699 0.69499463 0.4456616 4278914866
-1.1343988 0.70375955 0.44498518 4278848817
-1.1276857 0.70808345 0.44457439 4278914355
-1.1282299 0.71533257 0.4449499 4279045429
-1.1288892 0.72440696 0.44456756 4278849334
-1.136861 0.73713911 0.44502288 4279439159
-1.1295036 0.73243356 0.44545043 4279308087
-1.137445 0.7449978 0.4452022 4279570489
-1.1381834 0.75511652 0.44489965 4279504953
-1.1380301 0.76516205 0.44425932 4279833147
-1.137308 0.77517486 0.44435999 4279636027
-1.143942 0.78579021 0.44436601 4279374398
-1.1333755 0.78403854 0.44807801 4279767868
-1.156312 0.79802322 0.44173861 4279112771
-1.1446029 0.79450947 0.44507205 4279243071
-1.1568047 0.80446845 0.44242421 4279308354
-1.147728 0.80468988 0.4464089 4279373890
-1.1576301 0.81557518 0.44267765 4279767874
-1.1496984 0.8152414 0.44727817 4279898177
-1.4482008 0.82437336 0.44437811 4281018200
-1.4381869 0.8231672 0.44850779 4280162381
-1.1525753 0.8251121 0.44573107 4280488771
-1.1660943 0.83541811 0.44189101 4279571777
-1.1573427 0.8346957 0.44605383 4280227396
-1.1641433 0.84652728 0.44339284 4279704132
-1.1597742 0.84342372 0.44623661 4280489797
-1.1755548 0.85517472 0.44107938 4279704904
-1.1651832 0.85361391 0.44532511 4280097350
-1.1915867 0.86883688 0.44025666 4280164686
-1.1834004 0.86653936 0.44054627 4279705931
-1.1763937 0.86584628 0.44312453 4279639881
-1.1683391 0.86402446 0.44721109 4280163658
-1.2003411 0.87682366 0.44579211 4280558412
-1.1920995 0.87407678 0.44521353 4280492366
-1.183962 0.87190342 0.44706434 4280426318
-1.1768329 0.87011063 0.44802111 4280360267
-1.2007869 0.88188738 0.44863832 4280491342
-1.1926863 0.88234216 0.44432721 4280426831
-1.5005172 0.34722272 0.45353678 4279437860
-1.4894875 0.34718147 0.4538013 4279437861
-1.4903221 0.35799217 0.4552772 4279502876
-1.4898801 0.35256177 0.45364046 4279437861
-1.4907961 0.36511573 0.45326507 4281284159
-1.4791547 0.36918044 0.45700699 4281281334
-1.4794148 0.37274536 0.45690039 4281154883
-1.1167303 0.55660254 0.45295379 4282339412
-1.1089944 0.55864072 0.45837057 4281880660
-1.116997 0.56042677 0.45235822 4282339668
-1.1077437 0.56654817 0.45530009 4281946451
-1.1101944 0.57709402 0.45207337 4278521113
-1.1045014 0.5744018 0.45687908 4280959301
-1.1107709 0.58506548 0.45162985 4278584604
-1.1038845 0.5847804 0.45775008 4278781465
-1.1120926 0.59460706 0.45488748 4278977828
-1.1043005 0.590482 0.45757958 4278847008
-1.1203972 0.60651916 0.45242366 4279372329
-1.1134291 0.60393041 0.45637125 4279503145
-1.1210274 0.61515391 0.45216545 4279306538
-1.1061728 0.61613911 0.45681238 4279437608
-1.1215523 0.62234962 0.45195031 4279241258
-1.113696 0.62307191 0.45644394 4279306795
-1.1065888 0.62184072 0.45664191 4279437867
-1.1144133 0.63440627 0.45179597 4278978600
-1.1075249 0.6346693 0.45625833 4279044650
-1.1149356 0.64156526 0.45158193 4279109675
-1.1082658 0.64503723 0.45533547 4279240748
-1.1240727 0.6568886 0.45091751 4278456113
-1.116099 0.65600348 0.45545924 4278651694
-1.1089466 0.65414971 0.45567581 4278782253
-1.1247028 0.66552353 0.4506593 4278848816
-1.1167654 0.66463435 0.45663753 4279045168
-1.1095011 0.66175187 0.45544848 4278389550
-1.1326727 0.67858392 0.45008835 4279045425
-1.12555 0.67637724 0.45250028 4279373106
-1.1174968 0.67465693 0.45633781 4279634993
-1.1260793 0.68317735 0.45359629 4279438642
-1.1182541 0.68523633 0.4554469 4279504179
-1.1189594 0.69470215 0.45573843 4279372850
-1.1196908 0.70472485 0.45543873 4279307828
-1.1252688 0.71345603 0.45529211 4279504693
-1.123825 0.72474313 0.45478609 4279635509
-1.1301848 0.73838055 0.45497739 4279701304
-1.1234306 0.73419511 0.45395055 4279701559
-1.1306772 0.74487668 0.45550501 4279701050
-1.1314124 0.75495058 0.4552038 4279373371
-1.1321474 0.7650246 0.45490253 4279701307
-1.1328826 0.77509838 0.45460132 4280094779
-1.1406379 0.78571534 0.45268545 4280291645
-1.1336019 0.78456402 0.45544112 4280160059
-1.1414561 0.79591495 0.45528069 4279439936
-1.1341825 0.79240823 0.4555274 4279701309
-1.1467662 0.8045705 0.45492649 4279898434
-1.1501107 0.81834823 0.45446804 4279309377
-1.1497928 0.81399232 0.45459828 4279636546
-1.4385014 0.82507372 0.4553313 4279835215
-1.4283352 0.82255852 0.45728335 4280295507
-1.1518743 0.82536995 0.45490986 4280095811
-1.4388767 0.83021766 0.45517746 4281481059
-1.1588867 0.83462662 0.45537785 4279833923
-1.1602067 0.84611434 0.45542753 4279703620
-1.1598691 0.84216851 0.45359364 4279834436
-1.1634461 0.85461032 0.45463315 4280097607
-1.1686381 0.86514145 0.45570555 4281145417
-1.2006514 0.87898278 0.45172274 4280820046
-1.1925449 0.87696707 0.45433146 4280753996
-1.1843126 0.87385684 0.45516849 4280818509
-1.1772251 0.87187189 0.45831218 4280818253
-1.1691324 0.87242889 0.45401728 4281145932
-1.2009107 0.88201267 0.45313096 4280623187
-1.1929061 0.88118804 0.45629328 4280426573
-1.4900144 0.34937599 0.46812856 4279635240
-1.4897386 0.3471036 0.46387869 4279438118
-1.4903499 0.35541031 0.4638359 4279634209
-1.4910117 0.3636733 0.46590197 4280754735
-1.4792532 0.3692801 0.46058017 4281346358
-1.4915353 0.37084699 0.46568745 4282011733
-1.4796433 0.37462747 0.46042025 4281747278
-1.1026504 0.56636983 0.46259034 4282340438
-1.0958886 0.56838334 0.46694243 4282208597
-1.1032746 0.5749222 0.46233457 4280828228
-1.0964062 0.57547832 0.46673027 4281487184
-1.1040813 0.58497971 0.46489367 4278651162
-1.0969241 0.58257318 0.46651816 4278656548
-1.111804 0.59463596 0.46447596 4278847268
-1.1044973 0.59068125 0.4647232 4278781471
-1.112583 0.60494804 0.46521223 4279044391
-1.1133063 0.6147213 0.46531174 4279109672
-1.1140078 0.62447262 0.4646284 4279044650
-1.1146646 0.63333476 0.46475512 4278848043
-1.1078379 0.63582635 0.46519324 4278782507
-1.1157234 0.64634109 0.46867526 4279109420
-1.1084595 0.64461613 0.4641504 4279372078
-1.1163418 0.65571892 0.4658094 4278913838
-1.1089647 0.65170419 0.46347052 4279372078
-1.1170026 0.66487449 0.46524838 4279111218
-1.1258608 0.67735833 0.46185499 4279831602
-1.1177125 0.67451394 0.46522129 4279503921
-1.1262156 0.68171597 0.46316838 4279766066
-1.1185265 0.68542379 0.46559152 4279503923
-1.1192329 0.69528514 0.46478099 4279438645
-1.1201333 0.70694089 0.46638444 4279635510
-1.1198019 0.70306927 0.4645851 4279635510
-1.1270455 0.71406364 0.46511358 4279569460
-1.1294454 0.72497034 0.46476236 4279504438
-1.1303154 0.73675597 0.46480373 4279701304
-1.1298838 0.7312783 0.46370754 4279504439
-1.1309553 0.74515837 0.46560246 4279635000
-1.1316905 0.75523227 0.46530119 4279701050
-1.1324257 0.76530617 0.465 4280028987
-1.1331606 0.77538013 0.4646987 4280159803
-1.1410109 0.78555739 0.46777138 4279701566
-1.1338561 0.78541374 0.462955 4279635773
-1.1416881 0.79534668 0.4660286 4279767359
-1.1343811 0.79260945 0.46273986 4279570751
-1.147499 0.80438685 0.46487787 4279505215
-1.4283688 0.81943357 0.46764243 4280230736
-1.1517084 0.81636721 0.4656339 4279702080
-1.1498836 0.8118431 0.46437287 4279636799
-1.4387453 0.8246401 0.46615645 4279901010
-1.4285235 0.82274926 0.4641214 4280361557
-1.155751 0.8243134 0.4647592 4279505986
-1.4391607 0.83050537 0.46548963 4281283682
-1.1600591 0.8396579 0.4683077 4280096068
-1.1596227 0.83479309 0.46525919 4279506243
-1.1618298 0.84560692 0.46547931 4280096324
-1.1655473 0.85477281 0.46460664 4280162630
-1.1688808 0.86538726 0.4645201 4280490312
-1.2009814 0.87931699 0.46370313 4280230479
-1.1927948 0.8774035 0.46286941 4280163915
-1.1847279 0.87747431 0.46099672 4280229195
-1.1776946 0.8756212 0.46588397 4280294477
-1.1693752 0.8726747 0.46283188 4280294220
-1.1930293 0.88131267 0.4607639 4280098893
-1.1782622 0.8824712 0.46833897 4280230221
-1.4901253 0.34838095 0.47535476 4279503655
-1.4899013 0.34593964 0.47362864 4279240996
-1.4904246 0.35311332 0.47341412 4279766056
-1.4788349 0.35730141 0.47881919 4279700521
-1.4792478 0.36514795 0.47232628 4280159778
-1.4685825 0.36796367 0.47862229 4279633952
-1.4800687 0.37670887 0.47108653 4282077012
-1.4798086 0.37314403 0.47119313 4281153087
-1.4689895 0.37428474 0.47629967 4280950317
-1.4695193 0.38204351 0.47464532 4282274136
-1.4598081 0.38513798 0.47821957 4281745994
-1.0961058 0.56807762 0.47634658 4282076755
-1.1036799 0.57563734 0.47617239 4280697670
-1.0964578 0.57384092 0.47349 4281552464
-1.1113583 0.58566016 0.47295204 4278453530
-1.1043082 0.58421946 0.47599831 4278783772
-1.1120807 0.59491611 0.47452202 4278585123
-1.1048909 0.59107971 0.47901046 4278716448
-1.1128149 0.60467643 0.47509199 4279044648
-1.113583 0.6150015 0.47535777 4279240745
-1.1142098 0.62359232 0.47510087 4279372333
-1.1152894 0.63838768 0.47465849 4279175726
-1.1080154 0.6348058 0.47510317 4279109676
-1.115813 0.6454373 0.47480679 4279437358
-1.108582 0.64366007 0.47171855 4279241262
-1.1165608 0.65541047 0.47529852 4279306799
-1.1172794 0.6651547 0.47529444 4279307313
-1.1180106 0.6751774 0.47499475 4279569200
-1.118742 0.68520004 0.474695 4279700274
-1.1194606 0.69494426 0.47469094 4279372852
-1.1219089 0.70611107 0.47548985 4279503924
-1.1199563 0.70234156 0.47274613 4279438901
-1.127754 0.71509564 0.4753947 4279503925
-1.1300131 0.72821069 0.47765872 4279569718
-1.1296874 0.72488213 0.47450995 4279504695
-1.1304587 0.73532587 0.47455859 4279635256
-1.1312306 0.7457037 0.47482577 4279897400
-1.1319686 0.75551391 0.47539866 4279897914
-1.1400506 0.7690559 0.47783566 4280224827
-1.1327037 0.76558781 0.47509742 4280094525
-1.1404377 0.77507067 0.4756256 4280028989
-1.1331819 0.77340245 0.47125447 4280487742
-1.1419973 0.78522134 0.4750438 4279635774
-1.1466212 0.79546875 0.47556543 4279439679
-1.1488763 0.80403107 0.47500306 4279636543
-1.4286042 0.81967193 0.47619 4279378252
-1.1549788 0.81503785 0.47513404 4280161089
-1.1499561 0.81012368 0.47219259 4279833665
-1.4388498 0.82383841 0.47256947 4279443283
-1.4290899 0.82585001 0.47737402 4278853200
-1.1591554 0.82522845 0.47459474 4280881477
-1.4393501 0.83069712 0.4723644 4280826726
-1.4295797 0.83224279 0.47809538 4279709275
-1.1601511 0.83866996 0.47477835 4280292676
-1.159722 0.83313841 0.47393996 4280292677
-1.1655191 0.84578604 0.47541389 4280227397
-1.1684154 0.85541445 0.47511062 4279965766
-1.1771656 0.8652389 0.47516793 4280818248
-1.1688617 0.8618387 0.47403631 4280686920
-1.1930879 0.87586451 0.47882423 4279837774
-1.1848662 0.87448275 0.47507912 4280164174
-1.1775835 0.87141639 0.47369361 4280491084
-1.1853113 0.88080537 0.47425401 4279903311
-1.4786625 0.3532753 0.48370782 4279372328
-1.4681001 0.35762683 0.48959929 4279306535
-1.4684764 0.3640264 0.48585197 4279437863
-1.4689389 0.37160754 0.48206928 4280026909
-1.4593275 0.37583357 0.4862805 4279962658
-1.4597906 0.38218111 0.48609066 4281019448
-1.1032155 0.56562185 0.48692131 4282076243
-1.096216 0.56740075 0.48263019 4282010706
-1.1109343 0.57519114 0.48660257 4281155397
-1.1037666 0.5741002 0.48401222 4281485644
-1.0965266 0.57165766 0.48250291 4281945169
-1.1116261 0.58517373 0.48486772 4278519064
-1.1046323 0.58553749 0.48489586 4278979868
-1.1123575 0.59519631 0.48456803 4278519843
-1.1050483 0.59123909 0.48472536 4278716702
-1.1131254 0.60552132 0.48483387 4279044392
-1.1138445 0.6144706 0.48715168 4279371817
-1.1069851 0.61828184 0.48248684 4279437096
-1.1145153 0.62416685 0.48542538 4279633965
-1.1075029 0.62487853 0.4837195 4279634221
-1.1155567 0.63954234 0.48180568 4279240749
-1.108312 0.63546634 0.48483282 4279371566
-1.1160798 0.64590633 0.48391357 4279175470
-1.1090147 0.6440984 0.48743454 4279109935
-1.1167884 0.65506947 0.48520848 4279175726
-1.1175561 0.66543496 0.48534048 4278913839
-1.1182874 0.67545754 0.48504078 4279176240
-1.1190186 0.68548024 0.48474109 4279896626
-1.1201031 0.69983828 0.48574811 4279831349
-1.1196795 0.69463575 0.48418006 4280093237
-1.1205211 0.70556551 0.48557687 4279438389
-1.1243443 0.71537006 0.48479244 4279438646
-1.1301683 0.72747922 0.48586154 4279569462
-1.1278236 0.72304982 0.48539257 4279569719
-1.1306208 0.7341575 0.48430559 4279701049
-1.1230285 0.73992884 0.48454934 4279831865
-1.1314393 0.744982 0.48509756 4279962935
-1.1232374 0.74279243 0.48446369 4279897401
-1.1321417 0.75435644 0.48553908 4279897913
-1.1401818 0.76811779 0.48569435 4279897404
-1.1348597 0.76283956 0.48499528 4279832379
-1.1406721 0.77504009 0.4849073 4280094268
-1.1414106 0.78515905 0.48460475 4280160062
-1.1479686 0.79485345 0.48430169 4279635517
-1.1527946 0.80728096 0.48684049 4280029761
-1.1497835 0.80356181 0.48440534 4280029247
-1.1573257 0.81490195 0.48515335 4280357699
-1.4292388 0.82557964 0.48399779 4279508304
-1.4194382 0.82713991 0.488502 4280557139
-1.1594373 0.8255139 0.48483348 4280226629
-1.4248732 0.83398646 0.48516786 4280494680
-1.4198353 0.83277869 0.48776612 4280162383
-1.160236 0.8364585 0.48450625 4279899205
-1.1598817 0.83191025 0.48376387 4279768646
-1.1632606 0.84532088 0.48570329 4280226883
-1.1686987 0.85570121 0.48539433 4280096839
-1.1775087 0.86715722 0.48308101 4280687944
-1.1693238 0.86413914 0.48550957 4280687175
-1.1932521 0.87603074 0.48478496 4280361550
-1.1849495 0.87221843 0.48489952 4280426317
-1.1778497 0.87114018 0.48493218 4280557388
-1.1698492 0.87044001 0.48789424 4280819785
-1.193686 0.88197774 0.48460719 4280296784
-1.4682469 0.35777551 0.49492878 4279175719
-1.468635 0.36309257 0.49476978 4279307305
-1.4592344 0.36986062 0.49990198 4279307562
-1.4595231 0.37505171 0.49620914 4279371807
-1.4601262 0.38301077 0.49685559 4280823354
-1.4598603 0.38029203 0.49428368 4281148468
-1.4498208 0.39267474 0.49746177 4281879122
-1.1035556 0.56728637 0.495451 4281945427
-1.1112169 0.57578331 0.49597633 4281680714
-1.1039108 0.57248622 0.49434224 4282142546
-1.1119819 0.58553404 0.49778405 4278584343
-1.1048628 0.58629894 0.49173671 4279044634
-1.1126342 0.59547663 0.49461406 4278519843
-1.1052451 0.59143841 0.491869 4278650909
-1.1133573 0.60524982 0.49471357 4278847527
-1.1141365 0.6155619 0.49544981 4279240745
-1.1146588 0.6227209 0.49523577 4279437869
-1.1080675 0.6286183 0.495047 4279568943
-1.1157299 0.63706565 0.4957644 4279109933
-1.108521 0.6349445 0.4945401 4279240750
-1.1163666 0.6459977 0.49489883 4279307055
-1.109036 0.64213961 0.49392775 4279241007
-1.117051 0.65542048 0.49449739 4279503664
-1.1177843 0.66490835 0.49582106 4279241519
-1.118508 0.67511272 0.49469516 4279569457
-1.1269705 0.68248045 0.49057567 4280290098
-1.1192524 0.68490082 0.49558625 4279896884
-1.1272507 0.69466746 0.49493617 4279503924
-1.1197315 0.69203633 0.4937377 4279700020
-1.1207978 0.70584571 0.4956229 4279307828
-1.1222919 0.71410191 0.49538088 4279111220
-1.130316 0.72618508 0.49540451 4279242295
-1.1253272 0.7209276 0.49477389 4279176758
-1.1309099 0.7344501 0.49479648 4279635512
-1.1316451 0.74452394 0.49449524 4279897401
-1.1340588 0.75516427 0.4948473 4279766841
-1.1403844 0.76760906 0.49511924 4279963453
-1.1353775 0.76281452 0.49619961 4279701050
-1.1409515 0.77532309 0.49504972 4280095037
-1.1416899 0.78544176 0.49474716 4279767615
-1.1435066 0.79565251 0.49410912 4279701566
-1.1512803 0.80612707 0.49635246 4279767874
-1.1457027 0.80163825 0.49514562 4279832896
-1.1576484 0.81449509 0.49495426 4279964483
-1.4297613 0.82716167 0.49991924 4280293714
-1.4196513 0.82787931 0.49471965 4280883537
-1.160013 0.82879966 0.49791032 4280424519
-1.1596484 0.82482666 0.49510133 4279964483
-1.4202368 0.83507049 0.49688706 4281213782
-1.4199758 0.83292103 0.49286714 4281014353
-1.1603584 0.83455509 0.49481037 4280161603
-1.1622498 0.8444376 0.49452236 4279899972
-1.1688718 0.85483223 0.49469471 4280161862
-1.1779267 0.86780775 0.49759206 4280426056
-1.1695933 0.86450446 0.49502239 4280818504
-1.2017121 0.87728953 0.49823606 4280820560
-1.1934309 0.87483501 0.49526086 4280229966
-1.1851537 0.8724252 0.49231383 4279902031
-1.1781343 0.87142843 0.49526727 4280230222
-1.1699301 0.87052196 0.49083245 4280360777
-1.2018889 0.88023591 0.49664918 4280623182
-1.1938503 0.88214397 0.49056801 4280952146
-1.4685894 0.35812235 0.50736427 4279372328
-1.4688481 0.36166713 0.5072583 4279372328
-1.4589839 0.36568809 0.50214928 4279241255
-1.4596989 0.37425011 0.50543088 4279240993
-1.4601524 0.38058779 0.50488758 4280755765
-1.4498068 0.38941357 0.50635284 4281022016
-1.4501113 0.39296883 0.50800514 4281945685
-1.449966 0.39282179 0.50273347 4282076758
-1.1038312 0.56756538 0.5054521 4280701267
-1.1114736 0.57706326 0.5023464 4281353035
-1.1043348 0.57434595 0.50560683 4281029461
-1.1122315 0.5868476 0.50377744 4278650137
-1.1051186 0.58470988 0.50636935 4279705902
-1.1128403 0.59488976 0.50439882 4279109154
-1.1135734 0.60474545 0.50465244 4279109416
-1.1142691 0.61437029 0.50410354 4279306538
-1.1074209 0.61476278 0.5097605 4279109929
-1.1146475 0.62005746 0.50249714 4279175211
-1.10816 0.62607181 0.50604254 4278978602
-1.1160593 0.6373992 0.50772399 4278848558
-1.1087589 0.63459879 0.50487757 4278979116
-1.1165588 0.64510328 0.50503135 4278914094
-1.1092002 0.64164603 0.50180703 4278913837
-1.1172258 0.65425152 0.50473911 4278979631
-1.118005 0.66456348 0.50547534 4278913839
-1.1187364 0.67458612 0.50517571 4279241778
-1.1277709 0.68773347 0.50678045 4279438388
-1.1194321 0.68421108 0.50462681 4279372851
-1.128208 0.69439578 0.50465631 4279373107
-1.1199111 0.69168776 0.50179166 4279110964
-1.1289794 0.70481426 0.50478899 4279438899
-1.1300471 0.71758282 0.50973779 4279766839
-1.1288953 0.7143079 0.50549877 4279701559
-1.1304529 0.72465777 0.50519514 4279766071
-1.1220007 0.72032386 0.50093538 4279767096
-1.131188 0.73473167 0.5048939 4279570232
-1.1319232 0.74480563 0.50459266 4279701049
-1.1344424 0.75501388 0.50502634 4279504697
-1.1405979 0.76693273 0.50545144 4279504700
-1.133386 0.76414627 0.50603551 4279439676
-1.1412309 0.77560592 0.5051921 4279177275
-1.1418979 0.78484929 0.50462568 4279111997
-1.1500705 0.79948235 0.50746799 4279898174
-1.1448184 0.79515612 0.50463212 4279242812
-1.1531352 0.80583191 0.50439548 4279439936
-1.1591467 0.81467831 0.50477374 4279439936
-1.4232082 0.82782364 0.50325435 4280229204
-1.4132916 0.82823044 0.50654227 4280427094
-1.1601702 0.828058 0.50622791 4280227140
-1.1597297 0.82256651 0.50483066 4279833410
-1.4203036 0.83325303 0.5047695 4279899725
-1.4106381 0.83722496 0.50759697 4280820822
-1.1606404 0.83484071 0.50504923 4280227139
-1.1635351 0.84443182 0.50478953 4279703107
-1.1691047 0.85448325 0.50483912 4279244356
-1.1853464 0.86988002 0.507231 4281146444
-1.1780965 0.86729765 0.5057345 4280949832
-1.1698 0.86360329 0.50574261 4280227653
-1.2018477 0.87631989 0.50635856 4280295756
-1.193536 0.87277788 0.50533646 4280819279
-1.1783377 0.87163436 0.50264949 4281081422
-1.2020952 0.88044477 0.50413692 4280361552
-1.4687362 0.358271 0.51269376 4279110440
-1.4689949 0.36181575 0.51258779 4279176233
-1.4593351 0.36506397 0.51773345 4278848295
-1.4600897 0.37725857 0.51206237 4279306782
-1.4597524 0.37201822 0.5139879 4279044644
-1.4603472 0.38078496 0.51195693 4280426542
-1.4500489 0.38965863 0.51513892 4281020475
-1.4497136 0.38444823 0.51705337 4280162344
-1.4503049 0.39316487 0.51503408 4281945171
-1.1046267 0.57497126 0.51524001 4281421908
-1.1126652 0.58887792 0.51492023 4278388251
-1.1053547 0.58494902 0.51494169 4279640109
-1.1130832 0.59460527 0.51474899 4278716194
-1.1137513 0.60364586 0.51481009 4278912807
-1.1146644 0.61477059 0.51845503 4279109929
-1.1075389 0.61488241 0.51404667 4279109929
-1.1083276 0.62528157 0.51490569 4279044139
-1.116178 0.6375193 0.51202941 4278782765
-1.1090345 0.6348778 0.51487875 4278848044
-1.1168643 0.64617014 0.51392531 4279110189
-1.1096979 0.64346999 0.51605171 4278782252
-1.1175108 0.6547811 0.51438594 4279242032
-1.1182816 0.66484374 0.51552141 4279044911
-1.1190132 0.67486638 0.51522166 4278979633
-1.1221194 0.68917876 0.51698494 4279634481
-1.1196629 0.68388849 0.51462048 4279045170
-1.1268343 0.69414359 0.51445758 4279504180
-1.1292082 0.70447165 0.51474965 4279176756
-1.1301734 0.71704435 0.51625049 4279176758
-1.1298541 0.71312249 0.51506841 4279307829
-1.1306659 0.72354054 0.51677811 4279438903
-1.1228788 0.72784317 0.51363766 4279569718
-1.1315377 0.73584712 0.51537889 4279439159
-1.1232967 0.7335704 0.51346636 4279307573
-1.1322013 0.74508721 0.51469004 4279569720
-1.1329364 0.75516111 0.51438886 4279438905
-1.1337112 0.7652753 0.51553017 4279308347
-1.1415684 0.77648324 0.5158968 4279308347
-1.1342798 0.77340347 0.51432461 4279373885
-1.1440643 0.78511924 0.51538354 4279767358
-1.1501974 0.7984581 0.5154056 4280291647
-1.1490314 0.79262865 0.51407146 4280094525
-1.1576655 0.80475575 0.51471746 4280160576
-1.1593831 0.81440157 0.51484293 4279767360
-1.4101763 0.8282153 0.51553935 4280690005
-1.4051201 0.82729203 0.51660383 4280493136
-1.1603202 0.82674569 0.51590449 4279767616
-1.1598907 0.82124287 0.51497114 4279505471
-1.4107352 0.83607322 0.51474029 4280886104
-1.4007801 0.83539361 0.51965523 4280425811
-1.1609224 0.83512628 0.51528788 4280160833
-1.4012699 0.84210581 0.51945448 4281347422
-1.1668264 0.84383744 0.51512355 4280226883
-1.169401 0.85505509 0.5148201 4279637317
-1.1852939 0.86708665 0.51325089 4280295241
-1.1761789 0.86516833 0.51536274 4279966022
-1.1698954 0.86234248 0.51313192 4279899718
-1.2020382 0.8766973 0.5127421 4280229962
-1.1939609 0.87517488 0.51506573 4280295243
-1.1856533 0.87128687 0.515203 4279770698
-1.4487559 0.36886606 0.52455407 4279044644
-1.4492034 0.3753497 0.52335531 4279307045
-1.4501631 0.38815057 0.52397746 4280231729
-1.4498191 0.3837432 0.5232299 4279374112
-1.4388428 0.38304693 0.52748656 4279897125
-1.4505895 0.39399433 0.52380282 4281288781
-1.4510101 0.40037346 0.52185333 4280766546
-1.440369 0.40396369 0.52686107 4281159506
-1.1177826 0.5672757 0.52632993 4281224785
-1.1119455 0.57564688 0.52495992 4280764750
-1.1126285 0.58486277 0.52509475 4278981669
-1.1133598 0.59488541 0.524795 4279043619
-1.1140913 0.60490805 0.52449536 4278847014
-1.1148604 0.61459023 0.52666819 4279372074
-1.1079831 0.61797225 0.52253377 4279241002
-1.115568 0.62364167 0.5282442 4279305770
-1.1085032 0.62509924 0.52232069 4279175210
-1.1165084 0.63652784 0.52785885 4278979373
-1.1092526 0.63457066 0.52432525 4278979116
-1.1161395 0.64608556 0.52509153 4279175725
-1.1097513 0.64220399 0.52180922 4278782765
-1.1177876 0.6550613 0.524432 4279307055
-1.1185584 0.665124 0.52556747 4279307056
-1.1273735 0.67489177 0.52833861 4279241778
-1.1192373 0.67471462 0.52445996 4279110705
-1.128065 0.68528503 0.52540296 4279503408
-1.1197246 0.68177491 0.52315444 4278782256
-1.1287642 0.6949591 0.52485114 4279831603
-1.1294993 0.705033 0.52454996 4279241780
-1.1303076 0.71577334 0.52519125 4278914357
-1.1299449 0.71214819 0.5214498 4278587188
-1.1310092 0.7252211 0.52538997 4278980662
-1.1317444 0.735295 0.52508879 4279504696
-1.1324794 0.74536884 0.52478755 4279897401
-1.1332146 0.7554428 0.5244863 4279832378
-1.1411966 0.76753891 0.52718514 4279701052
-1.1339184 0.76468539 0.52536488 4279570234
-1.1417201 0.77512783 0.52577174 4279570235
-1.1344349 0.77267212 0.5225274 4279373628
-1.1448144 0.78553176 0.52525371 4279570237
-1.1503031 0.79669249 0.52466589 4279636286
-1.1499158 0.7912578 0.5251925 4279570493
-1.1582898 0.80436677 0.52520049 4279898432
-1.1596732 0.81494141 0.52467489 4279898687
-1.4004292 0.82882202 0.52490187 4280885324
-1.1604186 0.82515621 0.52436942 4279833150
-1.4009653 0.83558118 0.52638316 4280819028
-1.1639385 0.83596706 0.5252403 4280095041
-1.4014553 0.8422935 0.52618247 4281150043
-1.1683645 0.84477782 0.52506864 4280488517
-1.1700861 0.85982096 0.52791059 4279965766
-1.1696271 0.85470206 0.52470291 4280095813
-1.1764432 0.86543679 0.52495319 4279769157
-1.1942519 0.87566638 0.525065 4279967561
-1.1859848 0.87271863 0.52406484 4279704906
-1.1789883 0.87229323 0.52627254 4280032329
-1.194688 0.88141876 0.52553225 4280689228
-1.4384302 0.37617213 0.53118932 4279896615
-1.4287682 0.37945354 0.53614473 4279634728
-1.4502288 0.38659346 0.53105885 4280231216
-1.4499729 0.38308722 0.53116369 4279176734
-1.4390982 0.38491997 0.53209347 4279897122
-1.4292741 0.38638917 0.53593737 4279831333
-1.4507728 0.3936387 0.53202063 4281419340
-1.4401593 0.39783239 0.53637022 4281548101
-1.439788 0.39315173 0.53534454 4281019447
-1.4298282 0.39337328 0.5374679 4279569179
-1.451349 0.40071657 0.53415394 4280963154
-1.4405615 0.40415865 0.53384966 4281158993
-1.1259673 0.55934113 0.53196049 4281355341
-1.1190915 0.55988216 0.53610867 4282011216
-1.119508 0.56596828 0.53484392 4281945425
-1.1200622 0.57419288 0.5327934 4281156427
-1.1169199 0.57403857 0.53588325 4281485905
-1.1129053 0.58514297 0.53514081 4279375914
-1.1136365 0.59516555 0.53484106 4278846754
-1.1143681 0.60518831 0.53454137 4279108902
-1.1151022 0.61494857 0.53511131 4279699498
-1.1158489 0.62489039 0.53564978 4279699500
-1.1166376 0.63566422 0.53542554 4279306797
-1.1094027 0.63393056 0.53206599 4279306540
-1.1255627 0.64906794 0.53199816 4279372847
-1.1173328 0.64531893 0.53477776 4279241775
-1.1257727 0.65194619 0.53191215 4279372335
-1.1181167 0.65577352 0.53528589 4279306798
-1.1269894 0.66828316 0.53238606 4279438128
-1.1188352 0.6654042 0.53561348 4279437871
-1.1275722 0.67509294 0.53555113 4279569459
-1.1194365 0.67264318 0.53826976 4279503665
-1.1283073 0.68516678 0.53524983 4279766323
-1.1290423 0.69524074 0.53494859 4279962675
-1.1300997 0.70897281 0.53670359 4279897912
-1.12967 0.7040953 0.53396195 4279634740
-1.1305044 0.7151379 0.53474742 4279504439
-1.1312875 0.72550273 0.53548747 4279373622
-1.1320224 0.73557663 0.53518617 4279701048
-1.1327218 0.7452507 0.53463447 4280159545
-1.140843 0.7591486 0.53758687 4280225338
-1.1334585 0.75515682 0.53488946 4280225338
-1.1411853 0.7648499 0.53451616 4279963195
-1.133873 0.76144069 0.53296912 4280028730
-1.1454332 0.77484363 0.53453082 4280291133
-1.1500648 0.78871924 0.5383774 4279833151
-1.1455538 0.78619981 0.53395981 4280160575
-1.1504085 0.79444581 0.53529304 4279636030
-1.154532 0.80469912 0.5348537 4279898432
-1.1601499 0.81758612 0.53572136 4280488511
-1.1588144 0.81334788 0.53493679 4280357185
-1.1607008 0.82544184 0.53460819 4280292415
-1.4011387 0.8351351 0.53447676 4281081429
-1.3913624 0.83683777 0.53951943 4280557910
-1.1620822 0.83548224 0.53472465 4279898946
-1.4016405 0.84248114 0.53291041 4281018200
-1.3918035 0.84346676 0.53764701 4280754775
-1.1642239 0.84442776 0.53527319 4280554309
-1.1701459 0.85807157 0.5353145 4279834437
-1.1681887 0.852651 0.53542668 4280030020
-1.1758136 0.86491716 0.53548014 4280490312
-1.1945393 0.87595731 0.53549647 4280753226
-1.1862304 0.87214524 0.53536117 4280818251
-1.1950314 0.8825534 0.53572541 4280885067
-1.4289117 0.37959898 0.54135859 4279175976
-1.4293653 0.38541099 0.54234439 4279045159
-1.4185323 0.38683259 0.54608846 4278782761
-1.4301564 0.39584675 0.54319197 4280229675
-1.4297872 0.39119068 0.54217154 4279045151
-1.4192089 0.39550003 0.54755861 4278652452
-1.4307703 0.40476489 0.54147577 4281615433
-1.4201674 0.40924257 0.54541838 4282469715
-1.419848 0.40466174 0.54613179 4280692020
-1.4311892 0.4108094 0.54042536 4281158733
-1.1172127 0.56524408 0.54374957 4281945937
-1.1200906 0.57155609 0.54153436 4281552723
-1.1125031 0.57583249 0.54629433 4282403666
-1.1131462 0.58502543 0.54493755 4279379254
-1.1136649 0.59254217 0.54353762 4278911777
-1.107024 0.59693587 0.54575551 4278911778
-1.1146445 0.60546845 0.54458743 4279043366
-1.1073252 0.60146528 0.54447609 4279043622
-1.1154127 0.61579353 0.54485321 4279633962
-1.1161469 0.62555379 0.54542315 4279568683
-1.1168782 0.63557643 0.54512352 4279241261
-1.1175808 0.64530468 0.54454529 4279175982
-1.118318 0.65519041 0.54486847 4279044910
-1.1273073 0.66860503 0.543926 4278914609
-1.1190119 0.66449833 0.54517275 4278914352
-1.1268917 0.67612374 0.54522848 4278979633
-1.1197133 0.67292351 0.54831576 4278914096
-1.1285852 0.68544847 0.54534727 4279176499
-1.1293205 0.69552237 0.54504609 4279176754
-1.1302321 0.70786923 0.5450893 4279176500
-1.1298087 0.70241416 0.54426247 4279242291
-1.1307907 0.71567023 0.54444355 4279373366
-1.1314931 0.72504467 0.5448851 4279569974
-1.1322246 0.73471504 0.54560655 4279635511
-1.1402786 0.74786723 0.54807508 4279505208
-1.1329306 0.74449301 0.54502541 4279570489
-1.1421319 0.75607741 0.54695582 4279504953
-1.1335863 0.7544865 0.54183924 4279767097
-1.1441853 0.76533616 0.54486573 4279767099
-1.1481144 0.77385813 0.54419792 4279701820
-1.1501966 0.78777689 0.54627091 4279701565
-1.1497263 0.78210139 0.54423958 4279833149
-1.1506891 0.79472995 0.54548037 4279832641
-1.1537552 0.8052265 0.54546046 4279767106
-1.1602741 0.81588751 0.54550707 4279637057
-1.155912 0.81229228 0.54218149 4279308351
-1.1608764 0.8242681 0.54489052 4279964991
-1.3915846 0.83783555 0.5453493 4280621907
-1.1626865 0.83524168 0.5448091 4279833921
-1.3920337 0.84370011 0.54601103 4280426323
-1.168723 0.84522325 0.54420221 4281013060
-1.1702104 0.85587472 0.54420215 4280162118
-1.1698896 0.85147762 0.54433364 4280424519
-1.1744499 0.86470932 0.54504782 4280555079
-1.1947855 0.87620664 0.54443771 4280294475
-1.1864754 0.87239343 0.54425836 4280817483
-1.179424 0.87000614 0.54998368 4281145417
-1.195328 0.88364041 0.54421544 4281015374
-1.4187703 0.38707361 0.55472779 4279044649
-1.4193993 0.39569286 0.55447006 4278979619
-1.4202796 0.4077597 0.55410928 4281941574
-1.4199022 0.40258816 0.55426389 4281018676
-1.1121979 0.56917751 0.55357248 4281421647
-1.1127273 0.57568073 0.55553257 4282076753
-1.1133833 0.58470905 0.55515212 4279710528
-1.1141607 0.59473205 0.55666035 4278650401
-1.1070666 0.59592301 0.55036151 4278453536
-1.11484 0.60474813 0.5543319 4278847269
-1.1074827 0.60162467 0.55019104 4278781733
-1.1155651 0.6143567 0.55499166 4279044648
-1.1163192 0.62440217 0.55551201 4278848041
-1.1250178 0.63252258 0.55847937 4278454568
-1.117034 0.63428742 0.55495536 4278716969
-1.1177819 0.64444745 0.55491263 4279044909
-1.1185131 0.65447009 0.55461293 4279110446
-1.1192813 0.6647951 0.55487877 4279044911
-1.1202028 0.67695504 0.55585575 4279438386
-1.1197747 0.67147011 0.55492538 4279241776
-1.1219194 0.68513662 0.55456072 4279569203
-1.1277025 0.69411492 0.55559939 4279700786
-1.1302867 0.70503056 0.55544508 4279635252
-1.1299392 0.70148009 0.55208635 4279438899
-1.1309638 0.71451277 0.55458403 4279635510
-1.1317017 0.72432292 0.55515695 4279438902
-1.1324738 0.73470074 0.55542409 4279243064
-1.1404783 0.74806929 0.55531961 4279177527
-1.1332088 0.74477458 0.55512285 4279505467
-1.1427188 0.75469428 0.55519539 4278784824
-1.1487045 0.76448268 0.5551241 4279308602
-1.1494462 0.77464634 0.55482024 4279832636
-1.1502938 0.78626186 0.55447292 4279505726
-1.14987 0.7804541 0.55464655 4279505211
-1.1517487 0.79529262 0.55394381 4279766846
-1.1600531 0.80992019 0.55410296 4279309377
-1.154189 0.80561268 0.55444515 4279832896
-1.1604881 0.81576633 0.5542534 4279113024
-1.1525835 0.81601143 0.55824429 4279440192
-1.1611582 0.82455373 0.55512929 4279702847
-1.3919449 0.83897328 0.55619764 4280489809
-1.1627638 0.83451384 0.55487072 4280030786
-1.3921885 0.84231108 0.55609781 4280163155
-1.3825752 0.84815997 0.55553782 4279836495
-1.1700803 0.84895599 0.55911231 4280031559
-1.1686913 0.84440482 0.55450475 4280096581
-1.1703867 0.85469574 0.55452967 4279899718
-1.1736112 0.86465484 0.55535591 4280293192
-1.1950729 0.87649763 0.55486912 4279901002
-1.1867702 0.87314862 0.55363506 4280490059
-1.179689 0.87136573 0.55644482 4280621386
-1.1956153 0.88393134 0.55464691 4280425805
-1.4190081 0.38731453 0.56336713 4279699753
-1.4196215 0.39546189 0.56386465 4279896869
-1.4094661 0.39232337 0.56803858 4279700010
-1.4203769 0.40498453 0.56595153 4280954938
-1.4102168 0.40261149 0.5677309 4279700001
-1.4209902 0.41326857 0.5660497 4280831822
-1.4108255 0.41275582 0.56226718 4281547844
-1.1061797 0.57852405 0.56589592 4282076753
-1.1136308 0.58455181 0.56532168 4280367941
-1.10642 0.58206767 0.56507498 4281814867
-1.1143622 0.59457451 0.56502205 4278781470
-1.1231993 0.60491401 0.56700468 4279241255
-1.1150225 0.60376745 0.56433672 4279109668
-1.1238426 0.61480618 0.56362897 4278848552
-1.1157618 0.61360842 0.56486326 4278979111
-1.1248616 0.62836611 0.56437844 4278717739
-1.1166184 0.62494636 0.56568074 4278651688
-1.1253144 0.63482213 0.56346357 4278717483
-1.1173428 0.63460028 0.56617552 4278651689
-1.1260644 0.64424485 0.56563604 4279503663
-1.1180784 0.64474767 0.56567627 4279307053
-1.1188233 0.65535253 0.56423056 4279241262
-1.119513 0.66452354 0.56475848 4278979375
-1.1228676 0.67617553 0.56579423 4278979633
-1.1199392 0.67050016 0.56418806 4279111217
-1.1280448 0.68461663 0.56589895 4279242035
-1.1300868 0.69896394 0.56515485 4279635507
-1.1280557 0.69324929 0.56496364 4279635507
-1.1305069 0.70472044 0.56498271 4279700788
-1.1312419 0.71479434 0.56468147 4279569717
-1.1319771 0.7248683 0.56438023 4279570231
-1.1327519 0.73498225 0.56552148 4279308087
-1.1407392 0.7477982 0.56634867 4278718774
-1.1334571 0.74478376 0.56483477 4278849591
-1.1438552 0.75467479 0.56540227 4279111992
-1.1489854 0.76476681 0.56531155 4279439675
-1.1500591 0.77795613 0.56928676 4278718780
-1.1496968 0.77465534 0.56461859 4279177532
-1.1529284 0.78577125 0.56480151 4280028989
-1.1592704 0.79561305 0.56477809 4279832894
-1.1601453 0.8064096 0.56787097 4278915902
-1.1588278 0.80356508 0.56376064 4279308606
-1.1607573 0.81513798 0.566634 4279833152
-1.1526533 0.81554437 0.56233662 4279636543
-1.1614404 0.82483929 0.56536806 4280292160
-1.1644796 0.83437389 0.56519747 4280488770
-1.3825661 0.84469223 0.56521541 4280228691
-1.1701728 0.84796381 0.56561142 4279637573
-1.1697417 0.84240788 0.56476933 4279964996
-1.3740687 0.85078913 0.56836665 4280164177
-1.17067 0.85498261 0.56481338 4279768133
-1.1868051 0.868617 0.5681169 4279900744
-1.1747004 0.86433679 0.56470007 4279703367
-1.1953601 0.87678862 0.56530058 4279901259
-1.1870853 0.87328494 0.56560278 4280163149
-1.1798482 0.87134504 0.56275016 4280097353
-1.1959026 0.88422227 0.56507832 4280097099
-1.4164892 0.39443526 0.57511872 4279635500
-1.4096556 0.39251515 0.57491332 4279504171
-1.420494 0.40425149 0.57266015 4280561723
-1.4104735 0.40355182 0.57507473 4279898407
-1.4214321 0.41690904 0.57285804 4280962895
-1.4113252 0.41524673 0.57466358 4280568142
-1.4120023 0.42347538 0.57742774 4281813839
-1.1134107 0.57902479 0.57266867 4282142034
-1.1063442 0.57803053 0.57377523 4281814609
-1.1139076 0.58483207 0.57536775 4280499269
-1.1067742 0.58242631 0.57793355 4282272851
-1.0997083 0.58145034 0.57900733 4282469200
-1.114639 0.59485465 0.57506806 4278585373
-1.1234454 0.60694015 0.57079387 4279241512
-1.1153703 0.60487723 0.57476836 4279109668
-1.1161305 0.61519426 0.57474715 4279175976
-1.1168727 0.62496257 0.57560414 4279044649
-1.1176039 0.63498515 0.57530445 4278848044
-1.1264765 0.64626151 0.57597035 4279372333
-1.1182643 0.64417827 0.57461917 4279307054
-1.1270698 0.65459234 0.57514375 4279044654
-1.1251005 0.66431057 0.57470888 4278782766
-1.1243409 0.67472792 0.57552725 4278783024
-1.127979 0.68490267 0.57560533 4279176499
-1.1302381 0.69734019 0.57579041 4279962931
-1.1298078 0.69182712 0.57485539 4279766579
-1.1307849 0.70500207 0.5750801 4279897139
-1.13152 0.71507597 0.57477897 4279635253
-1.1322552 0.72514993 0.57447767 4279307829
-1.1330301 0.73526406 0.57561892 4279373880
-1.1408259 0.74574399 0.57569093 4279504695
-1.1335551 0.74245971 0.57540375 4279439930
-1.1435493 0.7542609 0.5752579 4280094778
-1.1467474 0.76487607 0.57557189 4279898428
-1.1501507 0.77697319 0.57572496 4279766846
-1.1498286 0.77301639 0.57453239 4279308348
-1.1525946 0.78533244 0.57477105 4280356668
-1.1594822 0.79484481 0.57531452 4279964221
-1.1602637 0.80549985 0.57514799 4279571262
-1.1599381 0.80169499 0.57337952 4279112766
-1.1609368 0.81486917 0.5744496 4280357441
-1.1617308 0.82537913 0.5751999 4279636800
-1.1653694 0.83402985 0.57487822 4279768129
-1.3738896 0.84601927 0.57513636 4280554578
-1.170314 0.84625149 0.57610196 4280422980
-1.1698766 0.8412841 0.57330978 4279702851
-1.3743341 0.85182267 0.57579118 4280096327
-1.1716013 0.85556 0.57546383 4280422981
-1.1950464 0.86866856 0.57648069 4280621900
-1.1867526 0.86582369 0.57413685 4280162375
-1.1764336 0.8619296 0.57407224 4279964743
-1.195498 0.87555122 0.57428622 4280425037
-1.1871027 0.8716585 0.57099414 4280228684
-1.2041694 0.8853125 0.57143718 4280884053
-1.1960794 0.88322103 0.57490921 4280097611
-1.4102203 0.39785096 0.58163422 4279439148
-1.4050484 0.39518574 0.58320475 4279307562
-1.4107207 0.40470973 0.58142918 4280227114
-1.4008745 0.40619218 0.5843665 4279635239
-1.3907822 0.40431747 0.58736748 4279241514
-1.4114715 0.41499782 0.5811215 4280632650
-1.4016212 0.41642535 0.58406049 4281022275
-1.3915249 0.41449571 0.58706313 4280096042
-1.3818026 0.41769999 0.58987558 4279700773
-1.4122223 0.42528597 0.58081388 4281552464
-1.4023162 0.42555335 0.58492821 4281093200
-1.3922677 0.424674 0.58675879 4281418570
-1.4027412 0.43177521 0.58360153 4281683536
