# .PCD v0.7 - Point Cloud Data file format
VERSION 0.7
FIELDS x y z rgba
SIZE 4 4 4 4
TYPE F F F U
COUNT 1 1 1 1
WIDTH 1083
HEIGHT 1
VIEWPOINT 0 0 0 1 0 0 0
POINTS 1083
DATA ascii
-0.64551848 0.40503666 0.26488277 4282543857
-0.6427716 0.41526347 0.26542476 4282543857
-0.64144069 0.4240607 0.26519826 4282543857
-0.63893843 0.42939097 0.26575631 4282543857
-0.64063847 0.43530002 0.26220617 4282543857
-0.63850373 0.43527898 0.2660574 4282543857
-0.6407271 0.44626889 0.2655282 4282543857
-0.63887256 0.44497746 0.26551908 4282543857
-0.64160234 0.45617902 0.26593217 4282543857
-0.63931447 0.45304057 0.26444429 4282543857
-0.64503515 0.46538812 0.26533785 4282543857
-0.66188771 0.47881305 0.26473013 4282543857
-0.65459335 0.4756977 0.26555377 4282543857
-0.64835519 0.47152165 0.26430416 4282543857
-0.68264878 0.48868495 0.26773334 4282543857
-0.67444181 0.48678711 0.26473889 4282543857
-0.66640079 0.48226449 0.26504135 4282543857
-0.74299365 0.49885613 0.26561993 4282543857
-0.7352851 0.49795532 0.26511246 4282543857
-0.72438586 0.49833423 0.26625556 4282543857
-0.71529263 0.49669027 0.26498562 4282543857
-0.70587069 0.49435425 0.26462111 4282543857
-0.69495225 0.49295571 0.2651898 4282543857
-0.6861648 0.49146572 0.26427615 4282543857
-0.67817497 0.49122274 0.26237497 4282543857
-1.1135112 0.50908059 0.26272431 4282543857
-1.1048505 0.50952059 0.26479375 4282543857
-1.0970262 0.5096072 0.26317823 4282543857
-1.0886289 0.50992739 0.26007852 4282543857
-1.0546288 0.50889826 0.26606041 4282543857
-1.047509 0.50897282 0.26418465 4282543857
-1.0303115 0.50970131 0.26093644 4282543857
-1.0263683 0.50989968 0.26454392 4282543857
-0.99404776 0.50894892 0.26057765 4282543857
-0.94206804 0.50896031 0.26459342 4282543857
-0.93519139 0.50922894 0.2645185 4282543857
-0.92492974 0.50954235 0.26519707 4282543857
-0.91524792 0.50970006 0.26260972 4282543857
-0.9032591 0.50827217 0.26429272 4282543857
-0.89463997 0.50874984 0.26536062 4282543857
-0.88525265 0.50895894 0.26520687 4282543857
-0.87450367 0.50792176 0.26422456 4282543857
-0.86514932 0.50592387 0.2653822 4282543857
-0.85600019 0.50534958 0.26440236 4282543857
-0.84442365 0.50543123 0.26453644 4282543857
-0.83300853 0.50670421 0.26537651 4282543857
-0.82530606 0.5066663 0.26588464 4282543857
-0.8149097 0.50578994 0.2651605 4282543857
-0.80591393 0.50383478 0.26527902 4282543857
-0.79470015 0.50446004 0.26532698 4282543857
-0.78415364 0.50421131 0.26539892 4282543857
-0.77612537 0.50204504 0.26536044 4282543857
-0.76456743 0.50190628 0.2647056 4282543857
-0.75479829 0.50122416 0.26530251 4282543857
-0.74560261 0.50116736 0.26436886 4282543857
-1.1208222 0.51103961 0.26024202 4282543857
-1.1150223 0.51154929 0.26477617 4282543857
-1.1052891 0.51191318 0.26963243 4282543857
-1.0948715 0.51000404 0.26807579 4282543857
-1.0873536 0.51117319 0.26642108 4282543857
-1.0740522 0.51351529 0.26458862 4282543857
-1.0656781 0.51251292 0.26522452 4282543857
-1.0566887 0.5111528 0.26425701 4282543857
-1.0337566 0.51203823 0.26490873 4282543857
-1.0278468 0.5121721 0.26492089 4282543857
-1.0144202 0.51228285 0.2643027 4282543857
-1.0032027 0.5141359 0.26594862 4282543857
-0.99577296 0.51359314 0.26471925 4282543857
-0.98432636 0.5137468 0.26687738 4282543857
-0.97547448 0.51322567 0.2644636 4282543857
-0.96643347 0.51295912 0.2649295 4282543857
-0.95445526 0.51424193 0.26499775 4282543857
-0.94543624 0.51223183 0.26520693 4282543857
-0.92765796 0.51176226 0.26663238 4282543857
-0.9121902 0.51132631 0.26728064 4282543857
-0.90484434 0.51048464 0.26581413 4282543857
-0.89996076 0.51044995 0.2635752 4282543857
-0.87961966 0.51149893 0.26135305 4282543857
-1.0742463 0.56633449 0.26005143 4282543857
-1.0666313 0.56897831 0.26786926 4282543857
-1.0708878 0.57638443 0.26837263 4282543857
-1.0676614 0.57427132 0.26489958 4282543857
-1.0721594 0.5848797 0.26539764 4282543857
-1.0687352 0.58353746 0.26330438 4282543857
-1.0732882 0.59488571 0.26563436 4282543857
-1.0801564 0.607494 0.26821035 4282543857
-1.0756346 0.60475481 0.26422352 4282543857
-1.0809286 0.61614484 0.26338348 4282543857
-1.0780007 0.6149779 0.26520744 4282543857
-1.0809308 0.62467319 0.2635299 4282543857
-1.077961 0.6247673 0.26560488 4282543857
-1.0813148 0.63323522 0.26120409 4282543857
-1.0762988 0.63569474 0.26607874 4282543857
-1.0759623 0.64596897 0.26468346 4282543857
-1.0807846 0.6572426 0.26377797 4282543857
-1.0778005 0.65527695 0.26503572 4282543857
-1.0814545 0.6649946 0.26471943 4282543857
-1.0788933 0.66527069 0.26586464 4282543857
-1.0818874 0.67594993 0.26384127 4282543857
-1.0788258 0.67426246 0.26744789 4282543857
-1.0904291 0.68985218 0.26309064 4282543857
-1.0853987 0.68485051 0.26501384 4282543857
-1.0914897 0.69586354 0.2643345 4282543857
-1.0887022 0.69394726 0.26595253 4282543857
-1.0929174 0.7052229 0.26524347 4282543857
-1.0894307 0.70275831 0.26194215 4282543857
-1.0926236 0.71454245 0.26454604 4282543857
-1.0885618 0.71846056 0.26790416 4282543857
-1.0933135 0.72477102 0.2653707 4282543857
-1.0896206 0.72176361 0.26704606 4282543857
-1.1011299 0.73945212 0.26998049 4282543857
-1.095444 0.73537701 0.26539198 4282543857
-1.1011754 0.74566728 0.26585606 4282543857
-1.0978154 0.74493986 0.26390439 4282543857
-1.1033152 0.75421864 0.2644172 4282543857
-1.0994986 0.75205451 0.26822051 4282543857
-1.1103054 0.76807892 0.2625438 4282543857
-1.1047041 0.76515913 0.26572844 4282543857
-1.0993909 0.76079297 0.26220018 4282543857
-1.1110094 0.77506822 0.26631179 4282543857
-1.1081818 0.77507502 0.26377511 4282543857
-1.1127107 0.78523666 0.2649397 4282543857
-1.1089904 0.78166777 0.26052755 4282543857
-1.1158863 0.79473013 0.26478034 4282543857
-1.120586 0.8036828 0.26301464 4282543857
-1.1177036 0.805116 0.26612902 4282543857
-1.1217946 0.81415761 0.26222974 4282543857
-1.1171087 0.81574959 0.26688325 4282543857
-1.122359 0.82507867 0.26443237 4282543857
-1.1187801 0.82407773 0.26755172 4282543857
-1.1230643 0.83518308 0.26526505 4282543857
-1.1308687 0.84784818 0.26890451 4282543857
-1.1259965 0.84517676 0.26442042 4282543857
-1.1327538 0.85526514 0.26634315 4282543857
-1.1283388 0.85386866 0.26159054 4282543857
-1.1410862 0.8685056 0.26817507 4282543857
-1.1360261 0.86468709 0.26422095 4282543857
-1.1425252 0.87300628 0.26553035 4282543857
-1.1389914 0.87244225 0.26282454 4282543857
-0.65057272 0.39397776 0.27988085 4282543857
-0.64655626 0.39618519 0.27422512 4282543857
-0.64548516 0.40538362 0.27484155 4282543857
-0.64442104 0.41430262 0.2752414 4282543857
-0.64104164 0.4240171 0.27576217 4282543857
-0.63933593 0.42814112 0.27475861 4282543857
-0.64059865 0.43373579 0.2769751 4282543857
-0.63887715 0.43590641 0.27504098 4282543857
-0.64120704 0.4465546 0.27442697 4282543857
-0.63929909 0.44381553 0.27548724 4282543857
-0.64383423 0.45508516 0.27443427 4282543857
-0.65161425 0.46768972 0.27601027 4282543857
-0.64775079 0.4638477 0.27431402 4282543857
-0.66224819 0.47961152 0.2747575 4282543857
-0.65552616 0.47489822 0.2744967 4282543857
-0.68427187 0.48793513 0.27439949 4282543857
-0.67510962 0.48511013 0.27445087 4282543857
-0.66636336 0.482914 0.27601439 4282543857
-0.75341856 0.49950853 0.27791628 4282543857
-0.74489474 0.49858069 0.27502608 4282543857
-0.73525274 0.49834833 0.27533236 4282543857
-0.72547233 0.49724698 0.27491209 4282543857
-0.71492672 0.49597582 0.2745555 4282543857
-0.70490515 0.49516043 0.27414337 4282543857
-0.69433254 0.4941752 0.2754842 4282543857
-0.6883437 0.49175417 0.27453995 4282543857
-1.091673 0.50773573 0.2743037 4282543857
-1.0556983 0.50900859 0.27177769 4282543857
-1.0308875 0.50995517 0.27033344 4282543857
-0.93378657 0.5096224 0.2745035 4282543857
-0.89591628 0.5089547 0.2724281 4282543857
-0.88310194 0.50959206 0.27506912 4282543857
-0.87640262 0.50909954 0.27294046 4282543857
-0.86381865 0.50757056 0.27363002 4282543857
-0.85553598 0.50659758 0.27490196 4282543857
-0.84529167 0.50711989 0.2747564 4282543857
-0.83517194 0.50686121 0.27532417 4282543857
-0.82445896 0.50653493 0.27476516 4282543857
-0.8141697 0.50551778 0.27529517 4282543857
-0.8059659 0.50386727 0.27448553 4282543857
-0.79513997 0.50447059 0.27541837 4282543857
-0.78517979 0.50351942 0.27468926 4282543857
-0.7746318 0.50250065 0.27569157 4282543857
-0.76413864 0.50267822 0.274896 4282543857
-0.75464284 0.50219119 0.27466351 4282543857
-0.74776542 0.50171173 0.2744396 4282543857
-1.111501 0.51668066 0.27443299 4282543857
-1.1054901 0.51498353 0.2753897 4282543857
-1.0962751 0.51093054 0.27487805 4282543857
-1.0882151 0.51062346 0.27849203 4282543857
-1.0720394 0.51522243 0.27395606 4282543857
-1.0650791 0.51342338 0.27501789 4282543857
-1.0552576 0.51162922 0.27662373 4282543857
-1.0431361 0.5121215 0.27584291 4282543857
-1.0352564 0.51229709 0.27549356 4282543857
-1.0283943 0.51243407 0.27427584 4282543857
-1.014066 0.51563734 0.27558273 4282543857
-1.0051103 0.51567113 0.27521968 4282543857
-0.99477392 0.51506537 0.27504775 4282543857
-0.98477358 0.51426977 0.27552605 4282543857
-0.97658664 0.51282066 0.27389717 4282543857
-0.96410573 0.51469713 0.27559331 4282543857
-0.9550758 0.51474363 0.27526617 4282543857
-0.94575441 0.51324558 0.27484632 4282543857
-0.93607211 0.51169646 0.27458367 4282543857
-0.92152542 0.51221985 0.27430299 4282543857
-0.91607338 0.51293039 0.27435964 4282543857
-0.90473664 0.51269466 0.27490413 4282543857
-0.89542341 0.51137853 0.27739802 4282543857
-0.88499868 0.51166672 0.2752358 4282543857
-0.87127846 0.5109691 0.27625409 4282543857
-0.86641407 0.51072353 0.27720776 4282543857
-1.0747852 0.5671286 0.27584523 4282543857
-1.0692914 0.56787956 0.27203846 4282543857
-1.0746101 0.57448137 0.27494308 4282543857
-1.0696275 0.57127786 0.2701847 4282543857
-1.0742563 0.58525538 0.27508005 4282543857
-1.0754187 0.59453142 0.27460852 4282543857
-1.0816629 0.60751247 0.2701402 4282543857
-1.0751914 0.60518187 0.27497694 4282543857
-1.0810084 0.61548948 0.2727527 4282543857
-1.0769978 0.61475277 0.27494156 4282543857
-1.0753181 0.62575573 0.27516389 4282543857
-1.0752721 0.63518387 0.27445903 4282543857
-1.0812935 0.64906269 0.27876475 4282543857
-1.0764458 0.64501053 0.27484065 4282543857
-1.0827986 0.65584308 0.27614194 4282543857
-1.0785204 0.65346617 0.27222568 4282543857
-1.0829828 0.66497838 0.27552596 4282543857
-1.0797466 0.66948479 0.27185059 4282543857
-1.0814239 0.67541033 0.27554092 4282543857
-1.0785593 0.67551082 0.27508923 4282543857
-1.0905789 0.68951058 0.27233899 4282543857
-1.0846767 0.68522841 0.27528542 4282543857
-1.0793809 0.6813401 0.27222514 4282543857
-1.0921043 0.69600284 0.27385846 4282543857
-1.0887001 0.69383991 0.27582788 4282543857
-1.0929177 0.704597 0.27465639 4282543857
-1.0895835 0.70494717 0.27831677 4282543857
-1.0934279 0.71566665 0.27563816 4282543857
-1.0893488 0.71408337 0.27186486 4282543857
-1.1005594 0.72628474 0.27810717 4282543857
-1.0965693 0.72468746 0.27403757 4282543857
-1.1012607 0.73520333 0.27496991 4282543857
-1.0984657 0.73377758 0.27517837 4282543857
-1.1018907 0.74562466 0.27613649 4282543857
-1.0986224 0.74429059 0.27319866 4282543857
-1.1034672 0.75544173 0.27477342 4282543857
-1.0993867 0.75228846 0.27497885 4282543857
-1.1053032 0.76522899 0.27524737 4282543857
-1.1109242 0.77584553 0.27399987 4282543857
-1.1079736 0.77441925 0.27556792 4282543857
-1.1110078 0.78741407 0.27338156 4282543857
-1.1074108 0.7845974 0.27579898 4282543857
-1.113432 0.79580152 0.27418461 4282543857
-1.1089262 0.79210633 0.27812985 4282543857
-1.1160315 0.80470383 0.2754505 4282543857
-1.1207576 0.81854695 0.27558896 4282543857
-1.1170123 0.81493294 0.27451611 4282543857
-1.1213974 0.82681006 0.27526504 4282543857
-1.1183282 0.82438833 0.27558538 4282543857
-1.1251791 0.83510882 0.27476573 4282543857
-1.1192677 0.83178365 0.27358443 4282543857
-1.1312319 0.84674686 0.27515739 4282543857
-1.1278186 0.84385592 0.27589577 4282543857
-1.1337829 0.85552561 0.27551767 4282543857
-1.1298182 0.85128844 0.2740601 4282543857
-1.1414236 0.86693114 0.27849525 4282543857
-1.1369673 0.86465198 0.27428371 4282543857
-1.1421537 0.87189168 0.2760981 4282543857
-1.1385572 0.87184745 0.27149063 4282543857
-0.65180904 0.39399296 0.28146467 4282543857
-0.64688742 0.40492028 0.28420725 4282543857
-0.64596617 0.41447672 0.28495932 4282543857
-0.64214236 0.42491254 0.28484157 4282543857
-0.63943344 0.42696601 0.28038207 4282543857
-0.64127231 0.43486714 0.28273034 4282543857
-0.63897097 0.4360981 0.28709799 4282543857
-0.64106894 0.44459412 0.28327578 4282543857
-0.63866276 0.44507599 0.28580043 4282543857
-0.64219773 0.45575002 0.28548244 4282543857
-0.63923889 0.45240775 0.28507087 4282543857
-0.65001643 0.46841571 0.28907537 4282543857
-0.64628857 0.46490619 0.28466976 4282543857
-0.66049886 0.4783183 0.28357068 4282543857
-0.65328771 0.47582605 0.28530511 4282543857
-0.64878172 0.47138813 0.28548273 4282543857
-0.68282127 0.48867762 0.28199273 4282543857
-0.67407972 0.48650667 0.28535765 4282543857
-0.66550159 0.48196974 0.2845948 4282543857
-0.65802324 0.48068404 0.28525832 4282543857
-0.75058335 0.49996272 0.28101519 4282543857
-0.74451214 0.49932966 0.28126189 4282543857
-0.73091877 0.49871832 0.28120878 4282543857
-0.72447103 0.498602 0.28468731 4282543857
-0.71516758 0.49761003 0.28459173 4282543857
-0.70324248 0.49786863 0.28536895 4282543857
-0.69509757 0.49459538 0.28481883 4282543857
-0.68565565 0.49157599 0.28531453 4282543857
-0.67866546 0.49095815 0.28789616 4282543857
-0.8827675 0.50969303 0.28074765 4282543857
-0.87254745 0.50835687 0.28435534 4282543857
-0.86471683 0.50852394 0.28473675 4282543857
-0.85497785 0.50898927 0.28454307 4282543857
-0.84334075 0.50865561 0.28255409 4282543857
-0.83432323 0.50782436 0.28358996 4282543857
-0.82504183 0.50807357 0.28539246 4282543857
-0.81541717 0.5066151 0.28473815 4282543857
-0.80465919 0.50649905 0.28534624 4282543857
-0.79390931 0.50664568 0.28472301 4282543857
-0.78590488 0.50464535 0.28533047 4282543857
-0.77538145 0.50400013 0.28501737 4282543857
-0.76524055 0.50386006 0.28479919 4282543857
-0.75548249 0.50329411 0.28461906 4282543857
-0.74430358 0.50255257 0.28655633 4282543857
-0.73493499 0.50081104 0.28594157 4282543857
-0.72785574 0.501082 0.28670037 4282543857
-0.71675563 0.50025046 0.28839234 4282543857
-1.1134841 0.5195744 0.28563267 4282543857
-1.1047792 0.51691377 0.28502509 4282543857
-1.0951346 0.51450986 0.28597459 4282543857
-1.0855309 0.51396137 0.2861484 4282543857
-1.0751077 0.51363677 0.28449538 4282543857
-1.0656759 0.51387352 0.28607491 4282543857
-1.0544997 0.51360333 0.28548574 4282543857
-1.0456362 0.51258403 0.28427088 4282543857
-1.0366485 0.51253545 0.28485006 4282543857
-1.023175 0.51566368 0.28478825 4282543857
-1.0156496 0.5150947 0.28509581 4282543857
-1.0058433 0.51426023 0.28434625 4282543857
-0.99492115 0.51501691 0.28519869 4282543857
-0.98514241 0.51464367 0.28568238 4282543857
-0.97463429 0.51473522 0.28578064 4282543857
-0.96599519 0.51374203 0.28440303 4282543857
-0.9543013 0.51388162 0.28406516 4282543857
-0.94406891 0.51396656 0.28498438 4282543857
-0.93464142 0.51389766 0.28456888 4282543857
-0.92389309 0.51491821 0.28612995 4282543857
-0.91487664 0.51515269 0.2845448 4282543857
-0.90421116 0.51584566 0.285016 4282543857
-0.89437282 0.51371139 0.28506356 4282543857
-0.88522047 0.51199728 0.28451675 4282543857
-0.87427914 0.51154041 0.28498843 4282543857
-0.8664754 0.51097047 0.28465149 4282543857
-0.8431145 0.51179135 0.28822061 4282543857
-0.83585685 0.51203626 0.28811169 4282543857
-0.82830447 0.51239151 0.289902 4282543857
-1.1062733 0.52187699 0.28361091 4282543857
-1.0815191 0.56484681 0.28543296 4282543857
-1.0784533 0.5668608 0.28453708 4282543857
-1.0805759 0.57254362 0.28344917 4282543857
-1.0779483 0.57528967 0.28543356 4282543857
-1.0745528 0.58525348 0.28454399 4282543857
-1.0695884 0.58972853 0.28595701 4282543857
-1.0720983 0.59480214 0.28481552 4282543857
-1.0694268 0.59752506 0.28932643 4282543857
-1.0733502 0.60705209 0.28631824 4282543857
-1.0685036 0.60447383 0.28345948 4282543857
-1.0752854 0.61519146 0.28498992 4282543857
-1.0748858 0.62572998 0.28540519 4282543857
-1.082036 0.63694257 0.28787974 4282543857
-1.0773456 0.63511896 0.28409764 4282543857
-1.0833455 0.64560431 0.28466725 4282543857
-1.0795267 0.64201492 0.28123033 4282543857
-1.0840653 0.65522218 0.284812 4282543857
-1.0830321 0.66467911 0.28483701 4282543857
-1.0841866 0.67508912 0.28508008 4282543857
-1.0907296 0.68588316 0.28380004 4282543857
-1.0876409 0.68400121 0.28500664 4282543857
-1.0918638 0.69523603 0.2866897 4282543857
-1.0886062 0.69506484 0.28370765 4282543857
-1.091839 0.70625478 0.28475708 4282543857
-1.0883298 0.70450419 0.28582358 4282543857
-1.0941186 0.71458751 0.28524011 4282543857
-1.0966638 0.72473562 0.28491345 4282543857
-1.1015259 0.73569238 0.28184679 4282543857
-1.0968606 0.73476034 0.28575504 4282543857
-1.1032063 0.74575031 0.28442171 4282543857
-1.0989244 0.74340361 0.28742301 4282543857
-1.1036431 0.75543034 0.28497106 4282543857
-1.1029712 0.76507235 0.28478584 4282543857
-1.099178 0.76910549 0.28986701 4282543857
-1.1028785 0.7762 0.28545061 4282543857
-1.0993114 0.77287459 0.28750223 4282543857
-1.1128459 0.78661275 0.28688112 4282543857
-1.1078658 0.78384554 0.28300139 4282543857
-1.1144797 0.79492056 0.28472 4282543857
-1.1169171 0.80420256 0.28493676 4282543857
-1.1210164 0.81637663 0.28620881 4282543857
-1.1175818 0.81395692 0.28396052 4282543857
-1.1227931 0.82582408 0.28434744 4282543857
-1.1189954 0.822074 0.28638753 4282543857
-1.1265194 0.83502817 0.2851634 4282543857
-1.131747 0.84438783 0.28383914 4282543857
-1.1286452 0.84550261 0.28585541 4282543857
-1.1325672 0.85551864 0.28487703 4282543857
-1.1289496 0.85173994 0.28675669 4282543857
-1.1400126 0.86986035 0.28352991 4282543857
-1.1358229 0.86459178 0.28548265 4282543857
-1.141145 0.87377006 0.28471181 4282543857
-1.1374279 0.87327552 0.28540012 4282543857
-0.64627212 0.40715352 0.29451123 4282543857
-0.64457345 0.41544247 0.29452991 4282543857
-0.64290577 0.42429623 0.29595199 4282543857
-0.64073998 0.4359839 0.29806033 4282543857
-0.63841587 0.43570778 0.29457471 4282543857
-0.64145952 0.4459365 0.29555482 4282543857
-0.63900286 0.44347849 0.29298267 4282543857
-0.64422297 0.45514339 0.29515049 4282543857
-0.6516459 0.46698233 0.29647356 4282543857
-0.64723772 0.46389025 0.2940743 4282543857
-0.66141903 0.47886312 0.29674572 4282543857
-0.65576524 0.47455305 0.29485732 4282543857
-0.64990371 0.47041216 0.29288155 4282543857
-0.68223792 0.48849425 0.29574922 4282543857
-0.67586863 0.48540771 0.29437995 4282543857
-0.66425353 0.48338363 0.29534069 4282543857
-0.65863889 0.48166728 0.2912738 4282543857
-0.73015296 0.49981603 0.29889828 4282543857
-0.72466421 0.49927753 0.29483134 4282543857
-0.71516615 0.49847966 0.29513812 4282543857
-0.70493907 0.49743029 0.2948541 4282543857
-0.69529569 0.49395722 0.29481101 4282543857
-0.68591356 0.49143803 0.29473805 4282543857
-0.86005837 0.50931489 0.29055342 4282543857
-0.85507935 0.50946707 0.29109147 4282543857
-0.82145262 0.5086413 0.29065201 4282543857
-0.81287497 0.50890243 0.29353717 4282543857
-0.80597353 0.50817519 0.29430652 4282543857
-0.79557997 0.50788367 0.29473335 4282543857
-0.7858265 0.50622332 0.29479557 4282543857
-0.77487886 0.50571758 0.29575887 4282543857
-0.76510066 0.50511807 0.29496264 4282543857
-0.75484842 0.50413376 0.29488567 4282543857
-0.74502307 0.50340295 0.29506457 4282543857
-0.73498315 0.50220972 0.29516041 4282543857
-0.72530669 0.5009914 0.29490742 4282543857
-0.71677089 0.50046307 0.2941525 4282543857
-1.1102182 0.51727146 0.29179701 4282543857
-1.1020634 0.51774406 0.29155481 4282543857
-1.094902 0.51776427 0.2911332 4282543857
-1.0847052 0.51579869 0.29431176 4282543857
-1.0786057 0.51455945 0.2946355 4282543857
-1.064881 0.51588452 0.29605183 4282543857
-1.0555072 0.51382011 0.29466167 4282543857
-1.0445323 0.51304907 0.29349262 4282543857
-1.0398718 0.51558644 0.29754299 4282543857
-1.0235919 0.51818681 0.29245278 4282543857
-1.0152081 0.51821482 0.2942321 4282543857
-1.0048201 0.51673967 0.2956993 4282543857
-0.99529016 0.51515031 0.29524833 4282543857
-0.98509157 0.51491159 0.29510009 4282543857
-0.97449678 0.51515001 0.29451719 4282543857
-0.96734256 0.51493031 0.29448682 4282543857
-0.95528805 0.51638079 0.29473621 4282543857
-0.94567084 0.51516312 0.29486379 4282543857
-0.93437129 0.51533461 0.29456884 4282543857
-0.9252761 0.51639801 0.29498583 4282543857
-0.91570884 0.51665044 0.29515091 4282543857
-0.90476894 0.5168795 0.2948648 4282543857
-0.89676726 0.51464903 0.29451212 4282543857
-0.88539565 0.51388341 0.29518431 4282543857
-0.87478197 0.51213956 0.29528075 4282543857
-0.86513364 0.51142186 0.29444364 4282543857
-0.8551231 0.51170862 0.29669949 4282543857
-0.84507257 0.51160949 0.29536054 4282543857
-0.83435982 0.5120362 0.29469016 4282543857
-0.82582122 0.51100332 0.29523793 4282543857
-0.81532454 0.51125801 0.29687509 4282543857
-0.80091953 0.51009834 0.29849809 4282543857
-1.0926257 0.52217841 0.29581752 4282543857
-1.0847147 0.52211726 0.29801384 4282543857
-1.0224921 0.52069128 0.29817444 4282543857
-1.0162413 0.52093059 0.29877928 4282543857
-1.0815402 0.5665583 0.29754618 4282543857
-1.0785803 0.56564534 0.29434404 4282543857
-1.0814584 0.57370275 0.29594183 4282543857
-1.0782763 0.57591915 0.29292104 4282543857
-1.0800622 0.58268893 0.29360896 4282543857
-1.0750805 0.58471298 0.29527941 4282543857
-1.0734975 0.59580642 0.29573196 4282543857
-1.0694816 0.59307134 0.29239482 4282543857
-1.0801483 0.60322481 0.29931423 4282543857
-1.0762056 0.60486317 0.29480907 4282543857
-1.0768752 0.61536121 0.29519913 4282543857
-1.0800753 0.62759972 0.29163975 4282543857
-1.077305 0.62489563 0.29507917 4282543857
-1.0812979 0.63573539 0.29530498 4282543857
-1.078077 0.63436133 0.29444078 4282543857
-1.0818614 0.64446831 0.29413021 4282543857
-1.0789433 0.64225185 0.2979691 4282543857
-1.0808319 0.65566862 0.29389563 4282543857
-1.0780388 0.65425533 0.29594484 4282543857
-1.0825098 0.66498697 0.29564995 4282543857
-1.0789781 0.66350794 0.29253301 4282543857
-1.0846599 0.67498648 0.2949203 4282543857
-1.0910683 0.68637633 0.29383314 4282543857
-1.0878589 0.68346024 0.2953068 4282543857
-1.0921228 0.69390559 0.29513186 4282543857
-1.0892134 0.6959818 0.2950522 4282543857
-1.0923898 0.70597363 0.29595283 4282543857
-1.0888455 0.70402133 0.29387346 4282543857
-1.0944151 0.71468794 0.2945815 4282543857
-1.0940679 0.72439325 0.29527992 4282543857
-1.1009228 0.73877901 0.29487711 4282543857
-1.0962446 0.73519176 0.29487011 4282543857
-1.1020198 0.74586165 0.29393145 4282543857
-1.0988433 0.7437793 0.29639509 4282543857
-1.103694 0.75445825 0.29486474 4282543857
-1.1035246 0.76522452 0.29543594 4282543857
-1.1050766 0.77546984 0.29434001 4282543857
-1.1128505 0.78641838 0.29437253 4282543857
-1.1081702 0.7833038 0.29582751 4282543857
-1.1143063 0.79511666 0.29495499 4282543857
-1.1153665 0.80504107 0.29498613 4282543857
-1.1159785 0.81503153 0.29483178 4282543857
-1.1216419 0.8263346 0.29196256 4282543857
-1.1172978 0.82477874 0.29588071 4282543857
-1.1224321 0.83660632 0.29582006 4282543857
-1.1183606 0.83304799 0.29627472 4282543857
-1.1309427 0.84935248 0.29269838 4282543857
-1.1263406 0.84475011 0.29515761 4282543857
-1.1328758 0.85542983 0.29481637 4282543857
-1.1288548 0.85134536 0.29749033 4282543857
-1.135051 0.86560053 0.29520622 4282543857
-1.1413709 0.87491947 0.29776159 4282543857
-1.1372114 0.87373292 0.29319718 4282543857
-0.64661902 0.40812302 0.30358979 4282543857
-0.64535671 0.41475666 0.30443901 4282543857
-0.6430887 0.42460153 0.30512139 4282543857
-0.64238256 0.43487537 0.30467501 4282543857
-0.64325893 0.44494325 0.30426386 4282543857
-0.64485562 0.45547694 0.30525029 4282543857
-0.65177929 0.46774355 0.30474457 4282543857
-0.64808017 0.46335447 0.30545551 4282543857
-0.66224331 0.47884378 0.30470526 4282543857
-0.65621823 0.47436291 0.30487654 4282543857
-0.68374306 0.48893127 0.30419126 4282543857
-0.67518085 0.48669878 0.30546501 4282543857
-0.66598421 0.48325989 0.30452663 4282543857
-0.65881729 0.48051023 0.30993316 4282543857
-0.73201931 0.49983895 0.3012892 4282543857
-0.71241713 0.49846163 0.30430055 4282543857
-0.7045725 0.49651286 0.30566588 4282543857
-0.69423485 0.49401662 0.30525023 4282543857
-0.68646246 0.49131551 0.30550435 4282543857
-0.86249441 0.50955808 0.30059081 4282543857
-0.81101298 0.50985342 0.30461678 4282543857
-0.80905849 0.5098294 0.30211291 4282543857
-0.79307181 0.50825346 0.30484495 4282543857
-0.78490996 0.50786859 0.30480304 4282543857
-0.77447009 0.50769454 0.30531535 4282543857
-0.76492107 0.50639445 0.30576292 4282543857
-0.75560123 0.50465345 0.30522987 4282543857
-0.74463993 0.50398803 0.30539244 4282543857
-0.73523545 0.50221169 0.3051838 4282543857
-0.72573102 0.50050163 0.30509093 4282543857
-0.71644837 0.5008865 0.30521861 4282543857
-1.1231892 0.51506323 0.30559486 4282543857
-1.1121268 0.51786768 0.30444691 4282543857
-1.1063343 0.51764685 0.3062045 4282543857
-1.0948013 0.51847047 0.30700174 4282543857
-1.0848781 0.51817679 0.30617186 4282543857
-1.073962 0.51837873 0.30451283 4282543857
-1.0648025 0.51608235 0.30552539 4282543857
-1.0572211 0.5140034 0.30376822 4282543857
-1.0439081 0.51663983 0.30556852 4282543857
-1.0344738 0.51758081 0.30689141 4282543857
-1.0237528 0.51871282 0.30701509 4282543857
-1.0133868 0.51840848 0.30562145 4282543857
-1.0043906 0.51742983 0.30527127 4282543857
-0.9949702 0.51601487 0.30488831 4282543857
-0.98486912 0.51611954 0.30569381 4282543857
-0.97563082 0.51621073 0.30489996 4282543857
-0.9639045 0.51797616 0.30565453 4282543857
-0.95452881 0.51735425 0.30416742 4282543857
-0.94578528 0.51616073 0.30489126 4282543857
-0.93565273 0.51658469 0.30546564 4282543857
-0.92452538 0.51771635 0.30500683 4282543857
-0.91355026 0.51757717 0.30595279 4282543857
-0.90464199 0.51599133 0.30419335 4282543857
-0.89379716 0.51540816 0.30543882 4282543857
-0.88549095 0.51449561 0.30514938 4282543857
-0.87532604 0.51390576 0.30429757 4282543857
-0.86469215 0.51287985 0.30522329 4282543857
-0.8538878 0.51271302 0.30502105 4282543857
-0.84519917 0.51286924 0.30548027 4282543857
-0.8356207 0.5113017 0.30448154 4282543857
-0.82478374 0.51120216 0.30541834 4282543857
-0.81507415 0.51167887 0.3050943 4282543857
-0.80532908 0.51157612 0.30554232 4282543857
-0.79640943 0.51101482 0.30530408 4282543857
-1.09209 0.52382785 0.30284184 4282543857
-1.0847889 0.52283347 0.30292273 4282543857
-1.0238491 0.52081329 0.30278394 4282543857
-1.0147716 0.52113456 0.30263051 4282543857
-0.91322958 0.52028638 0.30583394 4282543857
-1.0808396 0.56529337 0.30631936 4282543857
-1.077811 0.56592208 0.30410928 4282543857
-1.0813124 0.5725981 0.30201253 4282543857
-1.0773968 0.57494533 0.30581409 4282543857
-1.0747013 0.58586711 0.30501175 4282543857
-1.0751561 0.5956431 0.30570224 4282543857
-1.0805961 0.6054185 0.30724016 4282543857
-1.0775437 0.60468519 0.30434984 4282543857
-1.075406 0.61573392 0.30558282 4282543857
-1.0730135 0.62572759 0.30559844 4282543857
-1.0753511 0.63461155 0.30485371 4282543857
-1.0812393 0.64854753 0.30551764 4282543857
-1.0772766 0.64492887 0.30529511 4282543857
-1.0822754 0.65566337 0.30410105 4282543857
-1.0788002 0.65307087 0.30638856 4282543857
-1.0837047 0.66500109 0.30560717 4282543857
-1.0857816 0.6756829 0.30450362 4282543857
-1.0908703 0.68592662 0.30277929 4282543857
-1.0882974 0.68451226 0.30576783 4282543857
-1.0918831 0.69514978 0.30401319 4282543857
-1.088647 0.69420278 0.30728611 4282543857
-1.0930827 0.70472658 0.30390516 4282543857
-1.0879579 0.70813584 0.30761033 4282543857
-1.0929333 0.71632951 0.30575281 4282543857
-1.0896484 0.71550494 0.30483043 4282543857
-1.094704 0.72521544 0.3052775 4282543857
-1.1008023 0.73833513 0.30384576 4282543857
-1.0970274 0.73447692 0.30493793 4282543857
-1.101666 0.74658686 0.30551559 4282543857
-1.0982831 0.74445689 0.3053028 4282543857
-1.1035128 0.75533551 0.3047241 4282543857
-1.0993903 0.75188565 0.30173063 4282543857
-1.1037827 0.76479459 0.30511531 4282543857
-1.104635 0.77521431 0.30464271 4282543857
-1.110973 0.78649396 0.30572718 4282543857
-1.108158 0.78404087 0.30539605 4282543857
-1.1120443 0.79537344 0.30435064 4282543857
-1.109217 0.79625177 0.30704463 4282543857
-1.1130379 0.80549586 0.30530813 4282543857
-1.1202465 0.81859303 0.30843508 4282543857
-1.1155733 0.81466448 0.30505368 4282543857
-1.1208601 0.82619268 0.30499381 4282543857
-1.1180798 0.82410908 0.30413505 4282543857
-1.1244417 0.83542365 0.30486989 4282543857
-1.119359 0.83034241 0.30644301 4282543857
-1.130909 0.84640008 0.30582055 4282543857
-1.1283809 0.84497547 0.30513802 4282543857
-1.1332158 0.85454535 0.30481049 4282543857
-1.1408795 0.86810189 0.30877674 4282543857
-1.1367207 0.8642562 0.30494374 4282543857
-1.1428887 0.874726 0.30582264 4282543857
-1.138227 0.87231398 0.30252174 4282543857
-0.64661729 0.41467288 0.31468642 4282543857
-0.64280379 0.42498672 0.3146317 4282543857
-0.6415143 0.43521455 0.31426802 4282543857
-0.63948023 0.43643603 0.31784198 4282543857
-0.64218223 0.4451834 0.31512955 4282543857
-0.63965547 0.44225949 0.31361893 4282543857
-0.64526248 0.45497653 0.31510755 4282543857
-0.65143424 0.46637133 0.31603986 4282543857
-0.64835435 0.46372005 0.313921 4282543857
-0.66183311 0.47863102 0.31626311 4282543857
-0.65520436 0.47429499 0.31522042 4282543857
-0.69193494 0.48946056 0.31342641 4282543857
-0.68377686 0.48825979 0.31354585 4282543857
-0.67566657 0.48534292 0.31503147 4282543857
-0.66453779 0.48284349 0.31558502 4282543857
-0.65794057 0.4810656 0.31372416 4282543857
-0.73886251 0.49992296 0.310056 4282543857
-0.72152799 0.49914077 0.31823799 4282543857
-0.71453404 0.49859312 0.31488431 4282543857
-0.70485073 0.49661583 0.31554797 4282543857
-0.69572395 0.49310568 0.31494391 4282543857
-0.68553561 0.49066904 0.31636435 4282543857
-0.82013392 0.50996542 0.31630149 4282543857
-0.81752795 0.50993347 0.31296301 4282543857
-0.79349065 0.50889981 0.31267205 4282543857
-0.78385502 0.50967765 0.31482577 4282543857
-0.7770201 0.50949997 0.31422979 4282543857
-0.76481009 0.50742006 0.31510469 4282543857
-0.75639582 0.50344288 0.31450087 4282543857
-0.74377054 0.50339139 0.31581491 4282543857
-0.73580199 0.50128311 0.31485048 4282543857
-0.72480404 0.50098622 0.31521887 4282543857
-0.71844286 0.50093609 0.31305185 4282543857
-1.122829 0.51654923 0.31383803 4282543857
-1.1141509 0.51621109 0.31258434 4282543857
-1.1056807 0.51591814 0.31580427 4282543857
-1.0958927 0.51511395 0.31449229 4282543857
-1.0850393 0.51536661 0.31432262 4282543857
-1.0747358 0.51615298 0.31475514 4282543857
-1.0673482 0.5160386 0.3132498 4282543857
-1.0578678 0.51684254 0.31566459 4282543857
-1.0449136 0.51830322 0.31545308 4282543857
-1.0360556 0.51741755 0.31433588 4282543857
-1.023719 0.51838779 0.315175 4282543857
-1.0157816 0.51762199 0.31497517 4282543857
-1.0055168 0.51693273 0.3154909 4282543857
-0.99496013 0.5173828 0.31510887 4282543857
-0.98539805 0.51736504 0.31455925 4282543857
-0.9732545 0.51806003 0.31487986 4282543857
-0.96526057 0.51705313 0.31476346 4282543857
-0.9544577 0.51764649 0.31458262 4282543857
-0.94523364 0.51755941 0.31522122 4282543857
-0.93513215 0.51629192 0.31503028 4282543857
-0.92297965 0.51640719 0.31536776 4282543857
-0.91519541 0.51564813 0.3140578 4282543857
-0.90505451 0.51548678 0.3152239 4282543857
-0.89529145 0.51487541 0.3139998 4282543857
-0.88443327 0.51611316 0.3161701 4282543857
-0.87539852 0.51583254 0.31512395 4282543857
-0.86634922 0.51474971 0.31467438 4282543857
-0.85463089 0.51406687 0.31524295 4282543857
-0.8452577 0.51273292 0.31474018 4282543857
-0.8359971 0.51162046 0.31490141 4282543857
-0.82525349 0.51166368 0.315341 4282543857
-0.81484562 0.51105225 0.31522334 4282543857
-0.80392468 0.51131529 0.31479177 4282543857
-0.79572302 0.51098788 0.31551775 4282543857
-0.78479934 0.5118081 0.31715906 4282543857
-0.7728458 0.51011312 0.31524292 4282543857
-0.76801014 0.51054782 0.31577581 4282543857
-1.1090264 0.52084768 0.31785935 4282543857
-1.0450633 0.52066922 0.31846619 4282543857
-1.0815805 0.56388587 0.31351721 4282543857
-1.0781648 0.56750178 0.3146221 4282543857
-1.0808352 0.57348973 0.3143293 4282543857
-1.0778471 0.57586253 0.31476319 4282543857
-1.0804818 0.5854212 0.31613934 4282543857
-1.077147 0.58562148 0.31479368 4282543857
-1.0772754 0.59531492 0.31451097 4282543857
-1.0810841 0.60595495 0.31633383 4282543857
-1.0778356 0.60484099 0.31445232 4282543857
-1.080884 0.6131165 0.31566828 4282543857
-1.076653 0.61534047 0.31553558 4282543857
-1.0816095 0.62844598 0.31952411 4282543857
-1.0760152 0.62442911 0.31501454 4282543857
-1.0757028 0.63499808 0.31534326 4282543857
-1.081826 0.6457687 0.31696951 4282543857
-1.0776317 0.64331949 0.31321019 4282543857
-1.0846503 0.65477234 0.31488752 4282543857
-1.0864043 0.6645202 0.31519419 4282543857
-1.0867602 0.67461371 0.31450754 4282543857
-1.0906639 0.68874949 0.3153221 4282543857
-1.0873592 0.68531406 0.31430209 4282543857
-1.0913975 0.69553488 0.31464279 4282543857
-1.0886419 0.69441903 0.31576321 4282543857
-1.0925455 0.70509434 0.31557241 4282543857
-1.0887387 0.70339072 0.31181076 4282543857
-1.0949926 0.71535766 0.31488988 4282543857
-1.1004016 0.72821724 0.31896463 4282543857
-1.096864 0.72499031 0.3154721 4282543857
-1.1022135 0.73546684 0.31642151 4282543857
-1.0980526 0.7330811 0.31266233 4282543857
-1.1027323 0.7449497 0.31491047 4282543857
-1.1036838 0.75495827 0.31543571 4282543857
-1.1046246 0.76515967 0.31473997 4282543857
-1.1059659 0.77499121 0.31472346 4282543857
-1.1105478 0.7846328 0.31525674 4282543857
-1.1077549 0.78442729 0.31563577 4282543857
-1.1120306 0.79624909 0.31476325 4282543857
-1.1092795 0.79313153 0.31445721 4282543857
-1.1161417 0.80470848 0.3153756 4282543857
-1.1212046 0.81582695 0.31623888 4282543857
-1.1183987 0.81438112 0.31393027 4282543857
-1.1225351 0.82566428 0.31515762 4282543857
-1.1187546 0.82184553 0.31138247 4282543857
-1.1241338 0.83434165 0.31476194 4282543857
-1.1243966 0.84469479 0.31504565 4282543857
-1.1197276 0.84155554 0.31702206 4282543857
-1.1324729 0.85668731 0.31444559 4282543857
-1.1273204 0.85296726 0.3161895 4282543857
-1.1402141 0.86455643 0.31030491 4282543857
-1.1342415 0.86457759 0.31582826 4282543857
-1.1429651 0.87641782 0.31469402 4282543857
-1.138142 0.87309885 0.31512186 4282543857
-0.64495367 0.41744232 0.32391545 4282543857
-0.64180845 0.4240526 0.32467768 4282543857
-0.63930297 0.42789546 0.32459721 4282543857
-0.6409505 0.43543917 0.32550529 4282543857
-0.63928324 0.43351683 0.32431841 4282543857
-0.6424914 0.44477183 0.32504016 4282543857
-0.63951266 0.44009995 0.32283109 4282543857
-0.65083319 0.45858145 0.32675347 4282543857
-0.64687884 0.45438209 0.32474089 4282543857
-0.65257889 0.46543816 0.32517383 4282543857
-0.64927977 0.46140635 0.32108411 4282543857
-0.66275465 0.47818691 0.32640749 4282543857
-0.65715677 0.47350693 0.32455677 4282543857
-0.68193644 0.48880422 0.32577568 4282543857
-0.6739676 0.48679194 0.32548302 4282543857
-0.66656709 0.48222852 0.32434282 4282543857
-0.65965855 0.48095474 0.32130903 4282543857
-0.71356744 0.49941966 0.32426044 4282543857
-0.7053414 0.49720746 0.32514504 4282543857
-0.6951496 0.49416831 0.32504106 4282543857
-0.68623531 0.49112701 0.32498923 4282543857
-0.67933536 0.49059588 0.3225399 4282543857
-0.78550857 0.50980586 0.32395983 4282543857
-0.77101576 0.50861341 0.32624811 4282543857
-0.76429981 0.50774997 0.32485873 4282543857
-0.75510794 0.50593972 0.32436374 4282543857
-0.74455607 0.5052563 0.32494929 4282543857
-0.73529238 0.50308394 0.32489833 4282543857
-0.72512513 0.50215054 0.32543951 4282543857
-0.71448421 0.50121605 0.32607204 4282543857
-0.70867288 0.50047624 0.32547534 4282543857
-1.1102625 0.51870823 0.32971838 4282543857
-1.1035399 0.51715404 0.32503834 4282543857
-1.0956995 0.51543778 0.32461569 4282543857
-1.0855122 0.51654845 0.32529464 4282543857
-1.0754063 0.51736677 0.32652774 4282543857
-1.0655155 0.51749235 0.32478526 4282543857
-1.053828 0.51841271 0.32687324 4282543857
-1.0447414 0.51863879 0.32493371 4282543857
-1.0345836 0.51887286 0.32160756 4282543857
-1.0230221 0.51900548 0.32470319 4282543857
-1.0164098 0.51763099 0.32469252 4282543857
-1.0052152 0.51724678 0.32436013 4282543857
-0.99451578 0.51723605 0.32444075 4282543857
-0.9829157 0.51844275 0.32632247 4282543857
-0.97404748 0.51849359 0.32544422 4282543857
-0.96477604 0.51876622 0.32455897 4282543857
-0.95424771 0.51898092 0.32547501 4282543857
-0.94490159 0.51864922 0.32394391 4282543857
-0.93553418 0.51776803 0.32418415 4282543857
-0.92592853 0.51725578 0.32488894 4282543857
-0.91391754 0.51876223 0.32627982 4282543857
-0.90432239 0.51791668 0.325362 4282543857
-0.89531183 0.51686502 0.32452768 4282543857
-0.88469273 0.51734406 0.32614434 4282543857
-0.8751989 0.51574969 0.32471833 4282543857
-0.86336136 0.51628333 0.32542315 4282543857
-0.85531968 0.51465583 0.32497528 4282543857
-0.84577042 0.51345831 0.32531998 4282543857
-0.8342908 0.51337498 0.32519951 4282543857
-0.82508111 0.5128361 0.32486638 4282543857
-0.81472701 0.51202244 0.32548577 4282543857
-0.80615538 0.51090264 0.3239468 4282543857
-0.79504198 0.51201063 0.32561275 4282543857
-0.78581005 0.51121038 0.32528284 4282543857
-0.77508706 0.51049274 0.32493737 4282543857
-0.76853722 0.51063663 0.32404402 4282543857
-1.1133626 0.52271962 0.32880905 4282543857
-1.1060847 0.52374685 0.32447058 4282543857
-1.0539593 0.52077848 0.32986277 4282543857
-1.0480286 0.52070564 0.32226506 4282543857
-1.0319877 0.52145702 0.32755274 4282543857
-1.0245242 0.5216794 0.32837042 4282543857
-1.0196183 0.5215115 0.32745305 4282543857
-0.99937135 0.52030706 0.32863429 4282543857
-0.97450465 0.520854 0.32091498 4282543857
-0.93412817 0.52050567 0.32910186 4282543857
-1.0811666 0.56593138 0.32572725 4282543857
-1.0784376 0.56670886 0.32433301 4282543857
-1.0815518 0.57532632 0.32578406 4282543857
-1.0783488 0.5752157 0.32467055 4282543857
-1.0813955 0.58324832 0.32466355 4282543857
-1.0780352 0.58669126 0.32438734 4282543857
-1.0761306 0.59505498 0.32493162 4282543857
-1.0763879 0.60524607 0.32519704 4282543857
-1.0806587 0.61345065 0.32544905 4282543857
-1.0780327 0.61549199 0.32498899 4282543857
-1.0805588 0.6273042 0.32335049 4282543857
-1.0780153 0.6247834 0.32555741 4282543857
-1.0817562 0.63655275 0.32525489 4282543857
-1.0789899 0.63329452 0.3247343 4282543857
-1.0830462 0.64490277 0.32395026 4282543857
-1.0788481 0.64737976 0.32793126 4282543857
-1.0841572 0.65445614 0.3245329 4282543857
-1.0797503 0.65919054 0.32997045 4282543857
-1.0844955 0.66470391 0.32531786 4282543857
-1.0857625 0.67473632 0.32557812 4282543857
-1.0902357 0.68741572 0.32449293 4282543857
-1.0869329 0.68504655 0.32435054 4282543857
-1.0909148 0.69557589 0.32428917 4282543857
-1.0877993 0.69426334 0.32556814 4282543857
-1.0929159 0.70510876 0.32533041 4282543857
-1.0893979 0.70171022 0.32261744 4282543857
-1.0943673 0.71513808 0.32475257 4282543857
-1.1018616 0.72651285 0.32199395 4282543857
-1.0965937 0.72463244 0.32588106 4282543857
-1.1016208 0.73523736 0.32351348 4282543857
-1.0983354 0.73485839 0.32771599 4282543857
-1.1023006 0.74498969 0.32348844 4282543857
-1.0986263 0.74550623 0.32754356 4282543857
-1.1038855 0.75510049 0.32530791 4282543857
-1.0997452 0.75020903 0.32802722 4282543857
-1.1055683 0.76533937 0.3250998 4282543857
-1.1100669 0.77865303 0.32572168 4282543857
-1.1073442 0.7748574 0.32511848 4282543857
-1.1108952 0.78548729 0.32471105 4282543857
-1.1082542 0.78538805 0.32439846 4282543857
-1.1123241 0.79751563 0.32428032 4282543857
-1.1074889 0.79448295 0.32586393 4282543857
-1.1156601 0.80492383 0.32495952 4282543857
-1.1217458 0.81481504 0.32217753 4282543857
-1.1164092 0.8150484 0.32587713 4282543857
-1.1221637 0.82668239 0.3233093 4282543857
-1.1184969 0.82410735 0.32570788 4282543857
-1.1236238 0.83548498 0.3247194 4282543857
-1.1190141 0.83214098 0.32949874 4282543857
-1.1254466 0.84493738 0.32500783 4282543857
-1.1311485 0.85721648 0.32473707 4282543857
-1.1279075 0.85365516 0.32460272 4282543857
-1.1333976 0.86503553 0.32507399 4282543857
-1.1292191 0.86228967 0.32677761 4282543857
-1.1416327 0.87700367 0.32525817 4282543857
-1.1366209 0.87297297 0.32471845 4282543857
-1.1429615 0.88070494 0.32768938 4282543857
-0.64225292 0.42585459 0.33511594 4282543857
-0.63935924 0.42862207 0.33035845 4282543857
-0.64184153 0.43533644 0.33525592 4282543857
-0.63987988 0.43554634 0.3369596 4282543857
-0.64237952 0.44598842 0.33438236 4282543857
-0.63934761 0.44538075 0.33671463 4282543857
-0.65106702 0.45771143 0.3329356 4282543857
-0.64634699 0.45459741 0.33547634 4282543857
-0.65224034 0.465599 0.33490995 4282543857
-0.64927781 0.46243995 0.33662435 4282543857
-0.66190714 0.47731188 0.3355782 4282543857
-0.65675867 0.47292128 0.33494869 4282543857
-0.68234593 0.48911172 0.33512256 4282543857
-0.67523384 0.48542207 0.33480236 4282543857
-0.66630012 0.48149118 0.33445346 4282543857
-0.71185839 0.49824136 0.33411264 4282543857
-0.70429242 0.49729031 0.33537012 4282543857
-0.69466007 0.4932299 0.33466357 4282543857
-0.68623036 0.49109298 0.33462551 4282543857
-0.78540778 0.50928849 0.33464235 4282543857
-0.7745645 0.50898027 0.33603254 4282543857
-0.76500905 0.50892115 0.33517465 4282543857
-0.75477755 0.50735819 0.33492666 4282543857
-0.74443436 0.50609857 0.33510026 4282543857
-0.73484504 0.50526321 0.33519611 4282543857
-0.72489226 0.50473279 0.33511293 4282543857
-0.71573663 0.50223279 0.3348448 4282543857
-1.122215 0.51665407 0.33617383 4282543857
-1.1157479 0.51641142 0.33392417 4282543857
-1.1042082 0.51638269 0.3353284 4282543857
-1.0941259 0.5164507 0.33573124 4282543857
-1.0854789 0.51668102 0.33367267 4282543857
-1.0728767 0.51803851 0.33579993 4282543857
-1.0647748 0.51836503 0.33534619 4282543857
-1.0548766 0.51872486 0.3368403 4282543857
-1.0434889 0.51906335 0.33516771 4282543857
-1.0340395 0.5195576 0.33809572 4282543857
-1.0248168 0.51902789 0.33529776 4282543857
-1.0158366 0.51837564 0.33351299 4282543857
-1.0031984 0.51820368 0.33498421 4282543857
-0.99415588 0.51852602 0.33369875 4282543857
-0.98584735 0.51804811 0.33364597 4282543857
-0.97514153 0.51899147 0.33495283 4282543857
-0.96572256 0.51924241 0.33494601 4282543857
-0.95805836 0.51955819 0.33235317 4282543857
-0.945916 0.51815426 0.33595467 4282543857
-0.93452334 0.51830333 0.33526567 4282543857
-0.92477691 0.51884449 0.33480471 4282543857
-0.91534799 0.51883221 0.33543155 4282543857
-0.90512097 0.51804584 0.33477703 4282543857
-0.89405417 0.51783603 0.33512267 4282543857
-0.8858254 0.51679015 0.33503789 4282543857
-0.87750918 0.51638854 0.33451635 4282543857
-0.86522084 0.51737911 0.33508465 4282543857
-0.85476953 0.51610291 0.33514306 4282543857
-0.84492821 0.5144304 0.33494613 4282543857
-0.83512264 0.51296735 0.33485261 4282543857
-0.82539177 0.51236534 0.33499745 4282543857
-0.81523532 0.5124045 0.33444151 4282543857
-0.80480176 0.51317966 0.3356719 4282543857
-0.79507995 0.51295751 0.33482581 4282543857
-0.78493869 0.51141447 0.33560726 4282543857
-0.77670687 0.51066554 0.332499 4282543857
-0.76496804 0.51052868 0.33392945 4282543857
-0.75879115 0.51004249 0.33600044 4282543857
-1.0719371 0.52045155 0.335612 4282543857
-1.0554419 0.52079666 0.33176216 4282543857
-1.0462701 0.52114129 0.33294243 4282543857
-1.0321826 0.52172184 0.33424476 4282543857
-1.0255619 0.52165627 0.331489 4282543857
-1.0106879 0.52002162 0.33459201 4282543857
-1.0055723 0.52031249 0.33515498 4282543857
-0.99284756 0.52060586 0.3359071 4282543857
-0.98602509 0.52098429 0.33803454 4282543857
-0.95328355 0.52033526 0.33626398 4282543857
-0.94807315 0.52004445 0.33503675 4282543857
-0.93672234 0.5205251 0.33125684 4282543857
-1.082232 0.56751794 0.33485821 4282543857
-1.0791575 0.56698281 0.33419612 4282543857
-1.082553 0.57502174 0.33492866 4282543857
-1.0806644 0.58491099 0.33499902 4282543857
-1.0780522 0.58609968 0.3353487 4282543857
-1.080976 0.59476733 0.33549115 4282543857
-1.0780293 0.59592807 0.33502907 4282543857
-1.0808052 0.60516304 0.33513823 4282543857
-1.0781604 0.60517937 0.33394581 4282543857
-1.0813096 0.61363375 0.33793205 4282543857
-1.0782632 0.61567098 0.334398 4282543857
-1.0804682 0.62390685 0.33699307 4282543857
-1.0776949 0.62489206 0.3345193 4282543857
-1.0801092 0.63334119 0.33018044 4282543857
-1.0768512 0.63564867 0.33570343 4282543857
-1.0809017 0.64628965 0.3342545 4282543857
-1.0778599 0.64520615 0.33518007 4282543857
-1.0831542 0.65515441 0.33568203 4282543857
-1.0792953 0.65216082 0.33411515 4282543857
-1.0843714 0.66535413 0.33486921 4282543857
-1.0858053 0.67449909 0.33474207 4282543857
-1.0859687 0.68482399 0.33448482 4282543857
-1.0900636 0.69149256 0.33035257 4282543857
-1.0854264 0.69653189 0.33458313 4282543857
-1.0794287 0.69566667 0.33854181 4282543857
-1.091985 0.70669371 0.33545861 4282543857
-1.0888832 0.70355898 0.33571231 4282543857
-1.0919608 0.71438867 0.33415648 4282543857
-1.0887655 0.71742749 0.33593416 4282543857
-1.1002795 0.72927105 0.33398306 4282543857
-1.0958495 0.72431016 0.33478737 4282543857
-1.0887305 0.72026592 0.33397859 4282543857
-1.1005877 0.73957372 0.33627179 4282543857
-1.0975606 0.73554343 0.33534604 4282543857
-1.1019895 0.74629635 0.33518365 4282543857
-1.0986924 0.74300003 0.33416954 4282543857
-1.1041982 0.75464463 0.33495533 4282543857
-1.1102164 0.76655912 0.3375842 4282543857
-1.1068022 0.76402825 0.33454937 4282543857
-1.110164 0.77080321 0.33466023 4282543857
-1.1061702 0.77477443 0.33514437 4282543857
-1.1061859 0.78496552 0.33554873 4282543857
-1.1148273 0.79641354 0.33537582 4282543857
-1.107067 0.79297459 0.3333953 4282543857
-1.115976 0.8049857 0.33512604 4282543857
-1.1145096 0.81524241 0.33474341 4282543857
-1.1204683 0.82796144 0.3341867 4282543857
-1.1168557 0.82492238 0.33510435 4282543857
-1.122628 0.83543408 0.33458942 4282543857
-1.1192342 0.83203024 0.33574054 4282543857
-1.1246974 0.84482223 0.33526325 4282543857
-1.1300153 0.85876071 0.33459195 4282543857
-1.1264765 0.85470599 0.33501762 4282543857
-1.1326158 0.86623293 0.33468115 4282543857
-1.1288472 0.86232108 0.33472401 4282543857
-1.1428157 0.87790304 0.33481836 4282543857
-1.1362997 0.87298334 0.33602223 4282543857
-1.1471688 0.88075662 0.33307934 4282543857
-0.64256954 0.42711282 0.34408656 4282543857
-0.63926035 0.42876774 0.34778345 4282543857
-0.64210951 0.43465886 0.34611925 4282543857
-0.64324629 0.44487554 0.34519634 4282543857
-0.65108246 0.45810071 0.34857902 4282543857
-0.64666682 0.45487344 0.34452835 4282543857
-0.65349638 0.46574569 0.34578952 4282543857
-0.6488542 0.46330404 0.34220394 4282543857
-0.66189438 0.4779152 0.34527507 4282543857
-0.65784067 0.47310826 0.34465027 4282543857
-0.68279821 0.48869228 0.34291056 4282543857
-0.67524141 0.48551232 0.34412274 4282543857
-0.6662119 0.48246762 0.34542823 4282543857
-0.70451689 0.49886045 0.34515864 4282543857
-0.69584507 0.49634153 0.34466639 4282543857
-0.68515706 0.49343464 0.34578606 4282543857
-0.67791873 0.49043059 0.34906539 4282543857
-0.78232569 0.50875229 0.34073707 4282543857
-0.77562797 0.50931704 0.345027 4282543857
-0.76402277 0.5081479 0.34505048 4282543857
-0.75565922 0.50711405 0.34463388 4282543857
-0.74594551 0.50667661 0.34523737 4282543857
-0.7354539 0.50665814 0.3449429 4282543857
-0.7251057 0.50547385 0.34498411 4282543857
-0.71526062 0.50304073 0.34493479 4282543857
-0.70875973 0.50147521 0.34574264 4282543857
-1.1260051 0.51416141 0.34425101 4282543857
-1.115527 0.51487452 0.34460232 4282543857
-1.1062585 0.51521003 0.34456083 4282543857
-1.0955355 0.51542437 0.3455939 4282543857
-1.0849676 0.51527584 0.34177592 4282543857
-1.0794345 0.51830792 0.34672159 4282543857
-1.065712 0.51855862 0.34209764 4282543857
-1.0564908 0.51889843 0.34321746 4282543857
-1.0415418 0.51938093 0.34126878 4282543857
-1.0344194 0.51957369 0.34481534 4282543857
-1.0261694 0.51974851 0.34465075 4282543857
-1.0109067 0.51829594 0.344861 4282543857
-1.0045081 0.51855475 0.34486991 4282543857
-0.99341649 0.5181939 0.34610879 4282543857
-0.98638231 0.51733077 0.34465232 4282543857
-0.97426826 0.51956314 0.3432481 4282543857
