# .PCD v0.7 - Point Cloud Data file format
VERSION 0.7
FIELDS x y z rgba
SIZE 4 4 4 4
TYPE F F F U
COUNT 1 1 1 1
WIDTH 1085
HEIGHT 1
VIEWPOINT 0 0 0 1 0 0 0
POINTS 1085
DATA ascii
-1.1253464 0.6870839 0.3166835 4281623267
-1.1157669 0.68556827 0.31481898 4281623267
-1.126699 0.69517934 0.31507775 4281623267
-1.1283724 0.70456094 0.31468734 4281623267
-1.1303953 0.71504372 0.31636593 4281623267
-1.1270014 0.71431285 0.31353325 4281623267
-1.1314065 0.72028506 0.31720522 4281623267
-1.123142 0.72643209 0.31430182 4281623267
-1.1343523 0.73744047 0.31490517 4281623267
-1.1244905 0.73383158 0.31438836 4281623267
-1.1358694 0.74530256 0.31616414 4281623267
-1.1375431 0.75468415 0.31577373 4281623267
-1.1400193 0.76728112 0.31842172 4281623267
-1.1391162 0.76366383 0.31500351 4281623267
-1.1409771 0.77406394 0.31465 4281623267
-1.1428766 0.78586787 0.31130376 4281623267
-1.1340126 0.78529352 0.31698039 4281623267
-1.1446726 0.79529357 0.31249765 4281623267
-1.1355996 0.79387045 0.31741238 4281623267
-1.1465734 0.8050496 0.31431222 4281623267
-1.1369091 0.800892 0.31790915 4281623267
-1.1482648 0.81414491 0.31488538 4281623267
-1.1507188 0.82709968 0.31632891 4281623267
-1.149581 0.82120311 0.31538472 4281623267
-1.152292 0.8360793 0.3155587 4281623267
-1.162288 0.84674019 0.31432736 4281623267
-1.1534078 0.84233373 0.31529844 4281623267
-1.1639693 0.85616517 0.31393516 4281623267
-1.1753373 0.86690027 0.31740737 4281623267
-1.1656157 0.86525083 0.31391117 4281623267
-1.1759007 0.87005818 0.31727594 4281623267
-1.1666485 0.87182909 0.31168988 4281623267
-0.6826368 0.46754706 0.3248688 4281623267
-0.67971969 0.46290636 0.32434955 4281623267
-0.69374382 0.47725707 0.32448164 4281623267
-0.68704003 0.47449845 0.32605582 4281623267
-0.74409652 0.48811758 0.3200503 4281623267
-0.73759627 0.48794985 0.32216793 4281623267
-0.72424477 0.48749065 0.32456511 4281623267
-0.71353871 0.48608658 0.32527119 4281623267
-0.70468289 0.48488525 0.32494342 4281623267
-0.69622964 0.48219597 0.32494885 4281623267
-0.84476435 0.49742389 0.32209849 4281623267
-0.82472241 0.49914494 0.32524636 4281623267
-0.81656826 0.49955976 0.32134047 4281623267
-0.80031043 0.49815816 0.32547382 4281623267
-0.79471302 0.49683139 0.32536969 4281623267
-0.78673786 0.49603245 0.32426882 4281623267
-0.7757445 0.49737123 0.32588884 4281623267
-0.76672536 0.49573711 0.32502827 4281623267
-0.75388682 0.49395886 0.32551098 4281623267
-0.74477482 0.49276978 0.32559446 4281623267
-0.73696864 0.49138063 0.32602128 4281623267
-0.72582901 0.49119931 0.32741976 4281623267
-1.1107808 0.50825566 0.32432374 4281623267
-1.1012352 0.5057832 0.32532927 4281623267
-1.0929147 0.50450879 0.32618463 4281623267
-1.0837014 0.50517797 0.32390368 4281623267
-1.0669971 0.5081858 0.32488972 4281623267
-1.0576444 0.50716496 0.3249222 4281623267
-1.0467538 0.50721937 0.32447478 4281623267
-1.0325737 0.50899243 0.32589105 4281623267
-1.0244607 0.50948584 0.32517838 4281623267
-1.0160872 0.50851357 0.32454136 4281623267
-1.0040834 0.50802934 0.32884192 4281623267
-0.99524289 0.50714475 0.32434008 4281623267
-0.98410273 0.50615376 0.32494292 4281623267
-0.97595793 0.50614035 0.32506409 4281623267
-0.96723402 0.50615919 0.32554978 4281623267
-0.95386308 0.50756592 0.32592195 4281623267
-0.94554657 0.50742006 0.32399732 4281623267
-0.93395817 0.50602579 0.32505006 4281623267
-0.92284536 0.50516301 0.32570913 4281623267
-0.91575092 0.50563723 0.32504177 4281623267
-0.90528554 0.50483638 0.32479078 4281623267
-0.89422292 0.50451666 0.32603726 4281623267
-0.88451958 0.50515991 0.32509646 4281623267
-0.87371594 0.50432223 0.32473579 4281623267
-0.86350495 0.50396979 0.32531381 4281623267
-0.8532111 0.5034669 0.32512262 4281623267
-0.84570557 0.50135887 0.32524821 4281623267
-0.83587456 0.5007478 0.32609391 4281623267
-0.8263315 0.50169539 0.3241919 4281623267
-0.81435621 0.50252318 0.32559186 4281623267
-0.80536127 0.50134796 0.32567632 4281623267
-1.0585507 0.51035845 0.32945144 4281623267
-1.0164709 0.51005065 0.32599384 4281623267
-1.0042642 0.51087201 0.32420722 4281623267
-1.1018403 0.55454391 0.32410246 4281623267
-1.1036186 0.56425583 0.32433277 4281623267
-1.1055576 0.57461077 0.3251707 4281623267
-1.1076638 0.58590406 0.32596964 4281623267
-1.11014 0.59850097 0.32861763 4281623267
-1.109237 0.59488362 0.32519943 4281623267
-1.1110108 0.60466713 0.32518882 4281623267
-1.1126845 0.61404872 0.32479838 4281623267
-1.1146369 0.62499386 0.32434294 4281623267
-1.1165893 0.63593912 0.32388744 4281623267
-1.1183854 0.64536476 0.32508132 4281623267
-1.1205651 0.65668428 0.3268308 4281623267
-1.1195881 0.65223575 0.32447815 4281623267
-1.1218549 0.66417193 0.32588476 4281623267
-1.1238074 0.67511708 0.32542929 4281623267
-1.12576 0.68606234 0.32497382 4281623267
-1.1274432 0.69586551 0.32365951 4281623267
-1.1188054 0.69685125 0.32855019 4281623267
-1.129107 0.70482546 0.324193 4281623267
-1.1308808 0.71460903 0.32418236 4281623267
-1.1299779 0.71099162 0.32076415 4281623267
-1.1326193 0.72323 0.32659933 4281623267
-1.1241113 0.72787285 0.32410356 4281623267
-1.1349227 0.73585773 0.32677874 4281623267
-1.1250994 0.73405087 0.32226858 4281623267
-1.136604 0.7455672 0.32566977 4281623267
-1.1382775 0.75494868 0.32527936 4281623267
-1.1404307 0.7666977 0.32558349 4281623267
-1.1395674 0.76243627 0.32433334 4281623267
-1.1416247 0.7737118 0.32449853 4281623267
-1.1442574 0.78782827 0.32549718 4281623267
-1.1344283 0.7846114 0.3244473 4281623267
-1.1458136 0.79607022 0.3263438 4281623267
-1.136043 0.79475784 0.32132015 4281623267
-1.1473083 0.80475557 0.32522532 4281623267
-1.1371528 0.80097973 0.32106122 4281623267
-1.1491216 0.81445354 0.3259753 4281623267
-1.1508955 0.82423705 0.32596469 4281623267
-1.1499925 0.8206197 0.32254648 4281623267
-1.1527478 0.83478028 0.32512945 4281623267
-1.1627458 0.84543514 0.32394233 4281623267
-1.1541424 0.84259826 0.32480407 4281623267
-1.1645814 0.85520959 0.32481033 4281623267
-1.1758765 0.86635566 0.32623929 4281623267
-1.1661381 0.86380571 0.32477129 4281623267
-1.1765188 0.8702808 0.32527509 4281623267
-0.68221992 0.46678799 0.33436775 4281623267
-0.69518185 0.4780893 0.33504581 4281623267
-0.68749881 0.47475651 0.33567655 4281623267
-0.74146992 0.48869309 0.33513921 4281623267
-0.73512763 0.48896328 0.33481622 4281623267
-0.72488314 0.48702419 0.33538917 4281623267
-0.71326143 0.48649034 0.33452594 4281623267
-0.70378357 0.48481992 0.33445749 4281623267
-0.69675702 0.48178297 0.33548731 4281623267
-0.82369411 0.49954563 0.33539361 4281623267
-0.80076605 0.49799657 0.33218905 4281623267
-0.79472357 0.49686527 0.3360098 4281623267
-0.78809237 0.4947482 0.33415598 4281623267
-0.77571839 0.49675742 0.33553284 4281623267
-0.76687962 0.49292111 0.33423647 4281623267
-0.75449049 0.49209246 0.3354775 4281623267
-0.74411142 0.4916724 0.33484 4281623267
-0.72294283 0.49047798 0.33159083 4281623267
-1.1212978 0.50965339 0.33946228 4281623267
-1.1109937 0.50685477 0.33078879 4281623267
-1.1019799 0.50634539 0.33422914 4281623267
-1.0938499 0.50557721 0.33644989 4281623267
-1.0760176 0.50932431 0.33406794 4281623267
-1.0678171 0.50848114 0.33550099 4281623267
-1.0544761 0.50769013 0.33616516 4281623267
-1.0452067 0.50689489 0.33396393 4281623267
-1.0331033 0.50824159 0.33510908 4281623267
-1.025016 0.50828016 0.33589515 4281623267
-1.016874 0.50739795 0.33823603 4281623267
-1.0045482 0.50819677 0.3348569 4281623267
-0.99313623 0.50721067 0.33450571 4281623267
-0.98503757 0.50717676 0.33531681 4281623267
-0.97331738 0.50728965 0.33499205 4281623267
-0.96398705 0.50757104 0.33508739 4281623267
-0.95438248 0.50688684 0.33481804 4281623267
-0.94616073 0.5064922 0.33483148 4281623267
-0.93509287 0.50714684 0.3351247 4281623267
-0.92395651 0.50767839 0.33477622 4281623267
-0.91546965 0.50772333 0.33565789 4281623267
-0.90461177 0.50585973 0.33483747 4281623267
-0.89487475 0.50475144 0.33447209 4281623267
-0.88281256 0.5062831 0.33491617 4281623267
-0.87456274 0.50481027 0.33523297 4281623267
-0.86570299 0.50415814 0.33411279 4281623267
-0.85415101 0.50478894 0.33481538 4281623267
-0.84665722 0.50251061 0.33553049 4281623267
-0.8348701 0.50389004 0.33815092 4281623267
-0.8275423 0.50411952 0.33486667 4281623267
-0.81460816 0.50014907 0.33504239 4281623267
-0.80547494 0.50128961 0.33425444 4281623267
-0.79585457 0.5021379 0.33842748 4281623267
-1.1121799 0.51220697 0.33376944 4281623267
-1.1032169 0.51237655 0.33620894 4281623267
-1.0587907 0.51044488 0.33255592 4281623267
-1.0169392 0.51021922 0.33205271 4281623267
-1.0089523 0.51081216 0.33283773 4281623267
-0.97043711 0.51038969 0.33670121 4281623267
-1.1100309 0.54863834 0.33948025 4281623267
-1.1097848 0.54854977 0.33629707 4281623267
-1.1027598 0.55546033 0.33453265 4281623267
-1.1043534 0.56396174 0.33524585 4281623267
-1.1063474 0.57478887 0.33566046 4281623267
-1.1083111 0.58555186 0.33581817 4281623267
-1.1104555 0.59744406 0.33564049 4281623267
-1.1095922 0.59318262 0.33439031 4281623267
-1.1117455 0.60493171 0.33469445 4281623267
-1.1134189 0.61431324 0.33430403 4281623267
-1.1156367 0.62623185 0.33507693 4281623267
-1.1063054 0.62626809 0.33274978 4281623267
-1.1173221 0.63536686 0.33546725 4281623267
-1.1071174 0.63005388 0.33448565 4281623267
-1.1200451 0.64888871 0.33920965 4281623267
-1.1191421 0.64527142 0.33579144 4281623267
-1.1209159 0.65505493 0.33578083 4281623267
-1.1225895 0.66443646 0.33539042 4281623267
-1.1243501 0.67443478 0.33465713 4281623267
-1.125669 0.68212789 0.3335968 4281623267
-1.1176696 0.68741786 0.33651653 4281623267
-1.1190151 0.69547123 0.3349191 4281623267
-1.1304348 0.70764464 0.33549568 4281623267
-1.1231388 0.70399678 0.33432761 4281623267
-1.1198814 0.70160532 0.3315081 4281623267
-1.1316376 0.71451563 0.33489251 4281623267
-1.1334336 0.72394133 0.33608633 4281623267
-1.1353861 0.73488641 0.33563089 4281623267
-1.1373385 0.74583161 0.33517545 4281623267
-1.139012 0.75521326 0.33478501 4281623267
-1.1407861 0.76499671 0.3347744 4281623267
-1.1398829 0.76137942 0.33135617 4281623267
-1.1421648 0.77307034 0.33358869 4281623267
-1.1343641 0.77959794 0.33615178 4281623267
-1.1450859 0.7890045 0.33401325 4281623267
-1.1353134 0.78539801 0.33472699 4281623267
-1.1464388 0.7964173 0.33412775 4281623267
-1.1375382 0.79675198 0.33701578 4281623267
-1.1481827 0.80533648 0.33587137 4281623267
-1.1503358 0.8170855 0.3361755 4281623267
-1.1494725 0.81282407 0.33492532 4281623267
-1.1515298 0.8240996 0.33509058 4281623267
-1.1534822 0.83504486 0.33463505 4281623267
-1.1633607 0.84565663 0.3319003 4281623267
-1.1553096 0.84477437 0.33549908 4281623267
-1.1652095 0.85440689 0.33551976 4281623267
-1.1764224 0.86610907 0.33441815 4281623267
-1.1669104 0.86310399 0.33722931 4281623267
-1.1772605 0.87054795 0.33487412 4281623267
-0.68162841 0.46539643 0.34452155 4281623267
-0.69430721 0.47853589 0.34599724 4281623267
-0.68596369 0.47446311 0.34482846 4281623267
-0.7427879 0.48899865 0.34674156 4281623267
-0.73504359 0.48903123 0.34758973 4281623267
-0.72545254 0.48717782 0.3443985 4281623267
-0.7181285 0.48622879 0.3461419 4281623267
-0.70436293 0.4873268 0.34531105 4281623267
-0.69513708 0.48362321 0.34471157 4281623267
-0.82098031 0.49861592 0.34247622 4281623267
-0.7953859 0.49745128 0.34370831 4281623267
-0.78728986 0.49697888 0.34565639 4281623267
-0.77437907 0.49680743 0.34467453 4281623267
-0.76533473 0.49432391 0.34459051 4281623267
-0.75505233 0.49335265 0.34573469 4281623267
-0.7446155 0.49170935 0.34466487 4281623267
-0.73228252 0.49191785 0.34443274 4281623267
-0.72992444 0.4900299 0.34473938 4281623267
-1.1029912 0.50788558 0.34436306 4281623267
-1.0946627 0.50660151 0.34513089 4281623267
-1.0768657 0.50962973 0.34504259 4281623267
-1.0683683 0.50887179 0.34215045 4281623267
-1.0551941 0.50794864 0.3454566 4281623267
-1.0430517 0.50860131 0.34498364 4281623267
-1.0339919 0.50950319 0.34424338 4281623267
-1.0254865 0.50844955 0.34198332 4281623267
-1.0173422 0.50756657 0.34429491 4281623267
-1.0052453 0.50844777 0.34387931 4281623267
-0.9942072 0.50897586 0.34490004 4281623267
-0.98623401 0.50966668 0.34562966 4281623267
-0.97025996 0.50760585 0.34124005 4281623267
-0.96234775 0.50773495 0.34422284 4281623267
-0.95534223 0.50787407 0.34562692 4281623267
-0.9451583 0.50978988 0.34558544 4281623267
-0.93260121 0.50752163 0.34200573 4281623267
-0.92467678 0.50846654 0.34276873 4281623267
-0.91324079 0.50858575 0.34572256 4281623267
-0.90458763 0.50501895 0.34484285 4281623267
-0.89551145 0.50433159 0.34434158 4281623267
-0.88456923 0.50449258 0.34504914 4281623267
-0.87506896 0.50371122 0.34500244 4281623267
-0.86523795 0.50586426 0.34454864 4281623267
-0.8551119 0.50564581 0.3459675 4281623267
-0.84381831 0.50336027 0.34487528 4281623267
-0.83500546 0.50227416 0.34408274 4281623267
-0.82538074 0.50245017 0.34540656 4281623267
-0.8145172 0.50211537 0.34577301 4281623267
-0.80589354 0.50136089 0.34535742 4281623267
-0.79480529 0.50182271 0.3458513 4281623267
-1.1129514 0.51199228 0.34499019 4281623267
-1.1041024 0.51374537 0.34502974 4281623267
-1.0689533 0.51004326 0.34730935 4281623267
-1.0598702 0.51083362 0.34652609 4281623267
-1.0261073 0.51007879 0.34648693 4281623267
-1.0154843 0.51085168 0.34793964 4281623267
-0.9746359 0.51049048 0.34520796 4281623267
-0.96316254 0.51141155 0.34627032 4281623267
-0.94055867 0.5100885 0.34698418 4281623267
-0.93333024 0.5104416 0.34476504 4281623267
-0.92551267 0.51141155 0.34694543 4281623267
-0.9185164 0.51189744 0.34760803 4281623267
-1.1103998 0.5487712 0.34425506 4281623267
-1.1037487 0.55606723 0.34669778 4281623267
-1.1052278 0.56454271 0.34589189 4281623267
-1.1069014 0.5739243 0.34550148 4281623267
-1.1088539 0.58486938 0.34504601 4281623267
-1.1108063 0.59581465 0.34459049 4281623267
-1.1124799 0.60519624 0.34420013 4281623267
-1.1141535 0.61457777 0.34380972 4281623267
-1.116089 0.62478518 0.34497103 4281623267
-1.1071374 0.62569451 0.34571213 4281623267
-1.1180245 0.63499266 0.3461324 4281623267
-1.1204566 0.6483053 0.34637141 4281623267
-1.1195933 0.64404392 0.34512123 4281623267
-1.1213716 0.6537559 0.34535155 4281623267
-1.1141963 0.66462499 0.3456699 4281623267
-1.1255214 0.6757344 0.34760916 4281623267
-1.1157613 0.67355794 0.34490374 4281623267
-1.1178569 0.68526226 0.34452423 4281623267
-1.1203008 0.69884521 0.34424582 4281623267
-1.1194682 0.69417888 0.34444007 4281623267
-1.1309901 0.70675766 0.34541178 4281623267
-1.1211332 0.70351166 0.34405169 4281623267
-1.1324946 0.71482426 0.34598243 4281623267
-1.1341681 0.72420585 0.34559202 4281623267
-1.1361204 0.73515105 0.34513655 4281623267
-1.1380732 0.74609613 0.34468108 4281623267
-1.1403046 0.758605 0.34416053 4281623267
-1.1394677 0.75391418 0.3443557 4281623267
-1.1414201 0.76485932 0.34390023 4281623267
-1.1429935 0.773839 0.34313005 4281623267
-1.1352167 0.77990496 0.34718403 4281623267
-1.1452707 0.78589398 0.34438443 4281623267
-1.136083 0.78603911 0.34377307 4281623267
-1.1471212 0.7961753 0.34418312 4281623267
-1.1380538 0.7960642 0.34588042 4281623267
-1.1476033 0.80590469 0.34456107 4281623267
-1.1396224 0.8033247 0.34936517 4281623267
-1.15075 0.81587601 0.34494945 4281623267
-1.1441208 0.8123607 0.34663391 4281623267
-1.1522642 0.82436419 0.34459618 4281623267
-1.1628206 0.83811253 0.34336835 4281623267
-1.154025 0.83436239 0.34386292 4281623267
-1.1639414 0.84439582 0.34310687 4281623267
-1.1561913 0.8458966 0.3448897 4281623267
-1.1656228 0.8538208 0.34271464 4281623267
-1.1582102 0.85576838 0.34804764 4281623267
-1.177439 0.86765712 0.34460452 4281623267
-1.16755 0.86333424 0.34550563 4281623267
-1.1778787 0.87077051 0.34287328 4281623267
-1.1694773 0.8728478 0.34829661 4281623267
-0.68238258 0.46566805 0.35428163 4281623267
-0.69300473 0.47948012 0.35582232 4281623267
-0.68582475 0.47474152 0.35461804 4281623267
-0.74173772 0.48929664 0.35496369 4281623267
-0.73138899 0.48828369 0.35529533 4281623267
-0.72424543 0.4886311 0.3542636 4281623267
-0.71515864 0.48870859 0.35522071 4281623267
-0.70397723 0.48594359 0.35459509 4281623267
-0.69574583 0.48291364 0.35492146 4281623267
-0.82804108 0.49982601 0.35255578 4281623267
-0.80289716 0.49957827 0.35772151 4281623267
-0.79376459 0.49836937 0.35522988 4281623267
-0.78533995 0.49835068 0.3547129 4281623267
-0.77394915 0.49856436 0.35446262 4281623267
-0.76274496 0.49712837 0.3555539 4281623267
-0.75432944 0.49381676 0.35507819 4281623267
-0.74498981 0.49195173 0.35413674 4281623267
-0.73219275 0.49168232 0.35632175 4281623267
-1.1130954 0.50761163 0.35798597 4281623267
-1.1036506 0.50738806 0.3547411 4281623267
-1.0952924 0.50653565 0.35401583 4281623267
-1.0775926 0.50989151 0.35444939 4281623267
-1.0556728 0.50812101 0.35165095 4281623267
-1.0436457 0.50881523 0.35267162 4281623267
-1.0345829 0.50971597 0.35189018 4281623267
-1.0019493 0.50901568 0.35324571 4281623267
-0.99501514 0.50926685 0.35535571 4281623267
-0.98692322 0.50991488 0.35454774 4281623267
-0.97094274 0.50785178 0.35007575 4281623267
-0.96332598 0.50876385 0.35518247 4281623267
-0.95618987 0.50907755 0.35434031 4281623267
-0.94813007 0.50988257 0.35358262 4281623267
-0.9336018 0.507882 0.35495451 4281623267
-0.92565691 0.5081585 0.35711244 4281623267
-0.91330743 0.506576 0.35468653 4281623267
-0.90323353 0.50334555 0.35498488 4281623267
-0.89600927 0.50256342 0.35567459 4281623267
-0.88535553 0.50203329 0.35527 4281623267
-0.87549782 0.50386566 0.35055244 4281623267
-0.86470467 0.50691074 0.35569784 4281623267
-0.85588741 0.50641781 0.35476533 4281623267
-0.84524518 0.50387675 0.35486925 4281623267
-0.83598047 0.50262529 0.35669959 4281623267
-0.82516807 0.50238574 0.35471421 4281623267
-0.8131516 0.50271487 0.35545412 4281623267
-0.80483323 0.50184864 0.3541382 4281623267
-0.79506046 0.50122851 0.35389951 4281623267
-0.76138639 0.50046259 0.35914859 4281623267
-1.122789 0.51019043 0.35875914 4281623267
-1.1137228 0.51177764 0.35621092 4281623267
-1.1044468 0.51281947 0.35212493 4281623267
-1.0779561 0.5100224 0.35915276 4281623267
-1.0656623 0.51059866 0.35475844 4281623267
-1.0525641 0.51152122 0.35649943 4281623267
-1.0445437 0.51197863 0.35715812 4281623267
-1.035594 0.51290506 0.35788199 4281623267
-1.0268739 0.51129204 0.35405543 4281623267
-1.0143114 0.51205277 0.35555452 4281623267
-1.0025935 0.51201844 0.35462254 4281623267
-0.99588734 0.51233989 0.35971403 4281623267
-0.97543412 0.51077789 0.35553873 4281623267
-0.96395516 0.51169699 0.35652742 4281623267
-0.94303817 0.5102483 0.35622567 4281623267
-0.9341085 0.51072192 0.35483631 4281623267
-0.91884673 0.51201636 0.35188311 4281623267
-1.1032956 0.54921532 0.35763252 4281623267
-1.1042889 0.5554257 0.35578796 4281623267
-1.1059624 0.5648073 0.35539755 4281623267
-1.107636 0.57418889 0.35500717 4281623267
-1.110347 0.58906502 0.35518113 4281623267
-1.1092092 0.58316851 0.3542369 4281623267
-1.1115409 0.59607923 0.35409617 4281623267
-1.1132145 0.60546076 0.35370576 4281623267
-1.1148881 0.6148423 0.35331535 4281623267
-1.1167624 0.62502772 0.35368454 4281623267
-1.10799 0.62600148 0.35674438 4281623267
-1.1176963 0.63540912 0.35465255 4281623267
-1.1093435 0.63231111 0.35963756 4281623267
-1.1207252 0.64679259 0.35388908 4281623267
-1.1132324 0.64440125 0.35772461 4281623267
-1.1218612 0.65393221 0.35168862 4281623267
-1.1135193 0.65623027 0.35737985 4281623267
-1.1238137 0.66487736 0.35123315 4281623267
-1.1147187 0.66423088 0.35389119 4281623267
-1.1063194 0.66647792 0.35892043 4281623267
-1.1254873 0.67425895 0.35084274 4281623267
-1.1163834 0.67356366 0.35350281 4281623267
-1.1076995 0.6742146 0.35859847 4281623267
-1.1175287 0.685579 0.35329148 4281623267
-1.1093557 0.68349862 0.35821211 4281623267
-1.1206322 0.69750911 0.35219073 4281623267
-1.1148583 0.69466347 0.35557216 4281623267
-1.1313107 0.70561904 0.35270995 4281623267
-1.122182 0.70534492 0.3539685 4281623267
-1.1132201 0.70516133 0.35731062 4281623267
-1.1332631 0.71656424 0.35225445 4281623267
-1.1235728 0.71239567 0.35551593 4281623267
-1.1155493 0.71758366 0.3583633 4281623267
-1.1346579 0.72438216 0.3519291 4281623267
-1.1257012 0.7234965 0.3571052 4281623267
-1.1161015 0.72067833 0.35823452 4281623267
-1.1363314 0.73376375 0.35153875 4281623267
-1.1278803 0.73567617 0.3566885 4281623267
-1.1181548 0.73155332 0.35935158 4281623267
-1.1356145 0.74614424 0.35284176 4281623267
-1.1294436 0.74434853 0.35655302 4281623267
-1.1405153 0.75721771 0.35056269 4281623267
-1.1325706 0.75484973 0.35533676 4281623267
-1.1413521 0.76190847 0.35036749 4281623267
-1.1330779 0.76499522 0.3550176 4281623267
-1.1347674 0.77471489 0.35399839 4281623267
-1.1367103 0.78480953 0.35554549 4281623267
-1.1387222 0.79572278 0.355993 4281623267
-1.1405804 0.80595696 0.35601789 4281623267
-1.1397103 0.80190074 0.35415801 4281623267
-1.1514256 0.81564897 0.35487205 4281623267
-1.1415749 0.81203318 0.35452527 4281623267
-1.1529989 0.82462871 0.35410187 4281623267
-1.1547773 0.83434069 0.35433212 4281623267
-1.156716 0.84469563 0.35517016 4281623267
-1.1672902 0.85736108 0.35690829 4281623267
-1.1586279 0.85508269 0.35555357 4281623267
-1.1878917 0.8692736 0.35830545 4281623267
-1.178005 0.86667889 0.35489604 4281623267
-1.1680927 0.86268979 0.35463786 4281623267
-1.1787441 0.87108219 0.35407212 4281623267
-1.1697233 0.87293637 0.3514798 4281623267
-0.68313676 0.46593964 0.36404169 4281623267
-0.69311363 0.47854739 0.36470908 4281623267
-0.68523341 0.47382864 0.36542049 4281623267
-0.73084348 0.48803481 0.36247393 4281623267
-0.72479981 0.48767275 0.36434609 4281623267
-0.71700221 0.4871181 0.36458787 4281623267
-0.70484209 0.48573926 0.36422837 4281623267
-0.69530481 0.48236927 0.36585629 4281623267
-0.80361259 0.49983591 0.36697912 4281623267
-0.79397458 0.49794233 0.3652547 4281623267
-0.77624643 0.49953318 0.36368299 4281623267
-0.76346344 0.49717131 0.36539316 4281623267
-0.7543813 0.4936634 0.36387622 4281623267
-0.74584174 0.49225861 0.36516187 4281623267
-0.73354608 0.49219975 0.36592051 4281623267
-0.72565585 0.49145502 0.36669934 4281623267
-0.70939374 0.49054554 0.36953855 4281623267
-1.1139607 0.50792331 0.36918482 4281623267
-1.1044042 0.50780642 0.36412501 4281623267
-1.0962248 0.50765181 0.36412048 4281623267
-1.0875447 0.50947309 0.36632726 4281623267
-0.99582309 0.50955778 0.36581138 4281623267
-0.97208071 0.5082615 0.36480188 4281623267
-0.96411854 0.5090493 0.3654395 4281623267
-0.95675361 0.50928056 0.36163476 4281623267
-0.93438005 0.50816226 0.36502576 4281623267
-0.92611229 0.50792599 0.36400098 4281623267
-0.91479862 0.50666595 0.36569968 4281623267
-0.90424615 0.50501442 0.36481237 4281623267
-0.89323843 0.5055846 0.36615106 4281623267
-0.8850832 0.50254774 0.36474207 4281623267
-0.86610222 0.50507748 0.36453733 4281623267
-0.85635978 0.50502235 0.3648105 4281623267
-0.84654438 0.50504279 0.36522695 4281623267
-0.83564538 0.50389779 0.36532214 4281623267
-0.82553059 0.502361 0.36529016 4281623267
-0.81450158 0.50193238 0.36536175 4281623267
-0.80396086 0.50321847 0.36330757 4281623267
-0.79751301 0.50111336 0.36396208 4281623267
-0.77784812 0.50141984 0.36600658 4281623267
-0.76428556 0.50038934 0.36561602 4281623267
-1.1238524 0.51354361 0.36505929 4281623267
-1.1147611 0.51338279 0.36655506 4281623267
-1.1054308 0.51317382 0.3648577 4281623267
-1.0781983 0.51010966 0.36228839 4281623267
-1.0619929 0.5151819 0.36499357 4281623267
-1.0537648 0.51480722 0.36486959 4281623267
-1.0454085 0.51371014 0.36478299 4281623267
-1.0361259 0.51309657 0.36476409 4281623267
-1.0268767 0.51373863 0.36675635 4281623267
-1.0157527 0.51338726 0.36409464 4281623267
-1.0035698 0.51347828 0.36447373 4281623267
-0.99634904 0.51250619 0.36568868 4281623267
-0.98772728 0.51020443 0.36495212 4281623267
-0.97611839 0.51102442 0.36439362 4281623267
-0.94681466 0.51098222 0.36552408 4281623267
-0.93488675 0.51100224 0.36490759 4281623267
-1.0959907 0.55618095 0.36596137 4281623267
-1.0976557 0.56551379 0.36557299 4281623267
-1.100119 0.57804519 0.36820725 4281623267
-1.0992206 0.5744468 0.3648068 4281623267
-1.1009853 0.5841794 0.36479628 4281623267
-1.1029277 0.59506756 0.36434314 4281623267
-1.10487 0.60595584 0.36389002 4281623267
-1.1066566 0.61533254 0.3650777 4281623267
-1.1083045 0.62393147 0.36629769 4281623267
-1.0995399 0.62783813 0.36209804 4281623267
-1.1104898 0.63592613 0.36642972 4281623267
-1.1077474 0.63154483 0.36485624 4281623267
-1.0999708 0.63088918 0.36040142 4281623267
-1.1120505 0.6449303 0.36542389 4281623267
-1.1139929 0.65581852 0.36497074 4281623267
-1.1157017 0.66443938 0.36697876 4281623267
-1.1067344 0.66711003 0.36307976 4281623267
-1.1175661 0.67457181 0.36734605 4281623267
-1.1080629 0.67434549 0.36330184 4281623267
-1.1200296 0.68710327 0.36998031 4281623267
-1.1142689 0.6864 0.36453748 4281623267
-1.1094431 0.68208218 0.36297992 4281623267
-1.1212854 0.69499493 0.36754808 4281623267
-1.1117927 0.69538057 0.36211258 4281623267
-1.1232646 0.70615059 0.36693358 4281623267
-1.1135836 0.70529222 0.36201406 4281623267
-1.1247805 0.71501398 0.36566308 4281623267
-1.1264066 0.72396886 0.36568487 4281623267
-1.1284856 0.73566723 0.36509046 4281623267
-1.118397 0.73164058 0.3624872 4281623267
-1.1305234 0.74702466 0.3647818 4281623267
-1.1296533 0.7429685 0.36292189 4281623267
-1.1319948 0.75545609 0.36398008 4281623267
-1.133799 0.76510358 0.36472616 4281623267
-1.1354293 0.77389473 0.36522099 4281623267
-1.1375107 0.7850976 0.3659023 4281623267
-1.143095 0.79935628 0.36509052 4281623267
-1.1392596 0.79508454 0.36503586 4281623267
-1.1412176 0.8057186 0.36543864 4281623267
-1.1520599 0.81551164 0.36399791 4281623267
-1.1422276 0.8115406 0.36480191 4281623267
-1.1538733 0.82520962 0.36474788 4281623267
-1.1555121 0.8340466 0.36524531 4281623267
-1.1575061 0.84487379 0.36565983 4281623267
-1.1769853 0.85862863 0.36099711 4281623267
-1.1673446 0.85444093 0.36499703 4281623267
-1.1586859 0.85008711 0.36890352 4281623267
-1.1882473 0.86865908 0.36477077 4281623267
-1.1783197 0.86464989 0.36435035 4281623267
-1.1685885 0.86076844 0.36632711 4281623267
-1.1890794 0.87267154 0.36621371 4281623267
-0.68370241 0.46614337 0.37136176 4281623267
-0.67932844 0.46801335 0.37663904 4281623267
-0.69359308 0.4784683 0.37546527 4281623267
-0.68487477 0.47468442 0.37554684 4281623267
-0.67987645 0.47157827 0.37527385 4281623267
-0.73201132 0.48845538 0.37758633 4281623267
-0.72557491 0.48795187 0.37437707 4281623267
-0.71443462 0.48791999 0.37539089 4281623267
-0.70545995 0.48662645 0.37470371 4281623267
-0.69538879 0.48239589 0.37478879 4281623267
-0.80391914 0.49994633 0.37094668 4281623267
-0.76589179 0.4976615 0.37566006 4281623267
-0.75573552 0.49710527 0.37398088 4281623267
-0.74714714 0.49425882 0.37507614 4281623267
-0.73530936 0.49211523 0.37558499 4281623267
-0.72614032 0.49162951 0.3729687 4281623267
-0.71301717 0.49102211 0.37618756 4281623267
-0.70958531 0.4906145 0.372017 4281623267
-1.1144553 0.5081014 0.37558413 4281623267
-1.1054511 0.50877142 0.37619498 4281623267
-1.0972677 0.50900275 0.37516704 4281623267
-1.0881536 0.50969243 0.37420741 4281623267
-0.97264969 0.50846648 0.37216496 4281623267
-0.92021692 0.50987768 0.37622556 4281623267
-0.914428 0.50810826 0.37457991 4281623267
-0.90525866 0.50668335 0.37463984 4281623267
-0.89357358 0.50627923 0.37545773 4281623267
-0.88431484 0.50341874 0.37500119 4281623267
-0.87209809 0.50505376 0.37455773 4281623267
-0.86448276 0.50603658 0.37598071 4281623267
-0.85418278 0.50598109 0.37614846 4281623267
-0.84478921 0.50495785 0.37405539 4281623267
-0.83317685 0.50474411 0.37540105 4281623267
-0.82501441 0.50270826 0.37595907 4281623267
-0.81507277 0.50202447 0.37438333 4281623267
-0.80469137 0.50266725 0.37480557 4281623267
-0.79766691 0.50160557 0.37543601 4281623267
-0.78640509 0.50265437 0.37557945 4281623267
-0.77432352 0.50360417 0.37520209 4281623267
-0.76878887 0.50135672 0.37475166 4281623267
-1.1245184 0.51304096 0.37554485 4281623267
-1.1151946 0.51250458 0.37476027 4281623267
-1.0632424 0.51778227 0.37576365 4281623267
-1.0549043 0.51750052 0.3738831 4281623267
-1.0468121 0.51733959 0.37509972 4281623267
-1.0376264 0.51716799 0.37531263 4281623267
-1.0238938 0.51624846 0.37558046 4281623267
-1.0125685 0.51434195 0.37404129 4281623267
-1.0047445 0.51556385 0.37550035 4281623267
-0.99737835 0.51494598 0.37381184 4281623267
-0.98377353 0.51451993 0.37460968 4281623267
-0.97387898 0.51380527 0.37577605 4281623267
-0.96595985 0.51422328 0.37793815 4281623267
-0.95356417 0.51357925 0.37439269 4281623267
-0.94410485 0.5122115 0.37429217 4281623267
-0.93591827 0.51270241 0.37491974 4281623267
-0.92528677 0.51344872 0.37573278 4281623267
-0.91310805 0.51035833 0.37533984 4281623267
-1.0968453 0.55732042 0.37493035 4281623267
-1.0983863 0.56577694 0.37502924 4281623267
-1.100433 0.57699382 0.3751936 4281623267
-1.0995741 0.57275462 0.37394994 4281623267
-1.101716 0.58444256 0.37425247 4281623267
-1.1035606 0.59489858 0.37353042 4281623267
-1.1055987 0.60538661 0.37540954 4281623267
-1.1075091 0.61563963 0.37610996 4281623267
-1.1091743 0.62497234 0.37572157 4281623267
-1.1108389 0.63430512 0.37533319 4281623267
-1.1127812 0.6451934 0.37488008 4281623267
-1.1147236 0.65608168 0.37442699 4281623267
-1.1163884 0.66541445 0.37403861 4281623267
-1.1181923 0.67506206 0.37478468 4281623267
-1.1204389 0.68652296 0.37710485 4281623267
-1.1194707 0.68232745 0.3742364 4281623267
-1.1219041 0.69505602 0.3759608 4281623267
-1.1238465 0.70594436 0.37550768 4281623267
-1.1255113 0.71527719 0.37511933 4281623267
-1.1271762 0.72460985 0.37473094 4281623267
-1.1288409 0.73394269 0.37434256 4281623267
-1.1310768 0.74612755 0.37469617 4281623267
-1.1298292 0.74012071 0.3725076 4281623267
-1.1328475 0.75576305 0.37501237 4281623267
-1.1345299 0.76481104 0.37558255 4281623267
-1.1362989 0.77447253 0.37581164 4281623267
-1.1380504 0.78441876 0.37508217 4281623267
-1.1405653 0.79813319 0.37545818 4281623267
-1.1395363 0.79261965 0.37505648 4281623267
-1.1512433 0.80643868 0.37547827 4281623267
-1.1415291 0.80430239 0.373308 4281623267
-1.1529169 0.81582028 0.37508786 4281623267
-1.1427149 0.81171602 0.37110606 4281623267
-1.1546081 0.82491553 0.37566105 4281623267
-1.1563865 0.83462757 0.37589127 4281623267
-1.15806 0.8440091 0.37550092 4281623267
-1.178098 0.85902935 0.37539563 4281623267
-1.1680827 0.85470665 0.37454662 4281623267
-1.1591756 0.85026342 0.37524065 4281623267
-1.1888444 0.86707073 0.37702635 4281623267
-1.17895 0.86482412 0.37263754 4281623267
-1.1689575 0.86090136 0.37110192 4281623267
-1.1900735 0.87302953 0.3790783 4281623267
-1.1897006 0.87289524 0.37425408 4281623267
-0.6802938 0.46948355 0.3863126 4281623267
-0.67970717 0.46747628 0.38323233 4281623267
-0.69196099 0.47812128 0.38508767 4281623267
-0.6831302 0.47528669 0.3853606 4281623267
-0.73220593 0.48852548 0.38010505 4281623267
-0.72323108 0.4896712 0.38463056 4281623267
-0.71023691 0.48798797 0.38763463 4281623267
-0.70570326 0.48683739 0.38418171 4281623267
-0.69586182 0.4834778 0.38480857 4281623267
-0.78075469 0.49997625 0.38871324 4281623267
-0.77402675 0.49791569 0.38537911 4281623267
-0.76586866 0.49800491 0.38505891 4281623267
-0.75321823 0.49738148 0.3846029 4281623267
-0.74668968 0.49355626 0.38461396 4281623267
-0.73545992 0.49306208 0.38555032 4281623267
-0.72574824 0.49274993 0.38487905 4281623267
-0.71085691 0.49221691 0.38559765 4281623267
-1.0978799 0.50922322 0.38308841 4281623267
-1.0887625 0.50991172 0.38208762 4281623267
-0.88507301 0.50540823 0.38050047 4281623267
-0.8749525 0.5071938 0.38401693 4281623267
-0.86509579 0.50701964 0.38199943 4281623267
-0.85500711 0.50678813 0.38396701 4281623267
-0.84477454 0.50578499 0.38588163 4281623267
-0.83353364 0.50616771 0.38446039 4281623267
-0.82431269 0.50651526 0.38570252 4281623267
-0.81667131 0.50278944 0.3851895 4281623267
-0.80550909 0.5029617 0.38538572 4281623267
-0.79666984 0.5028109 0.38564146 4281623267
-0.78498608 0.50262243 0.38422564 4281623267
-0.77469265 0.50204277 0.38423494 4281623267
-0.76943469 0.50056767 0.385674 4281623267
-0.75110877 0.50005567 0.38715422 4281623267
-1.1253434 0.51408058 0.38435617 4281623267
-1.1161211 0.51387256 0.38415325 4281623267
-1.1070229 0.51345319 0.38619819 4281623267
-1.0986825 0.5124386 0.38612685 4281623267
-1.086766 0.51343292 0.38792303 4281623267
-1.0639621 0.51804143 0.38507712 4281623267
-1.0556484 0.5169124 0.38566256 4281623267
-1.0473427 0.5158267 0.3862462 4281623267
-1.0359939 0.51724547 0.38476148 4281623267
-1.0229857 0.51630551 0.38436154 4281623267
-1.0135601 0.51525581 0.38547274 4281623267
-1.00544 0.5158143 0.3845008 4281623267
-0.99624556 0.51542187 0.3851476 4281623267
-0.98725605 0.51488268 0.38429645 4281623267
-0.97497028 0.51610225 0.3851161 4281623267
-0.96666336 0.5147022 0.38647568 4281623267
-0.9549852 0.51613623 0.38442135 4281623267
-0.94448 0.51683933 0.38432088 4281623267
-0.9372983 0.5161227 0.38543653 4281623267
-0.92535293 0.51496834 0.38517493 4281623267
-0.91459829 0.51526219 0.38365731 4281623267
-0.90538186 0.51495433 0.38519764 4281623267
-0.89519864 0.51256675 0.38516057 4281623267
-0.88673097 0.51244193 0.38578987 4281623267
-0.8777293 0.51155424 0.38682553 4281623267
-0.85673314 0.51130617 0.38711259 4281623267
-0.84571099 0.51030064 0.38750553 4281623267
-1.0977297 0.55826277 0.38480911 4281623267
-1.099117 0.5660401 0.38448545 4281623267
-1.1008818 0.5757727 0.38447493 4281623267
-1.0999835 0.57217425 0.38107446 4281623267
-1.102551 0.58503431 0.38432616 4281623267
-1.1042334 0.59408236 0.38489637 4281623267
-1.1062976 0.60501438 0.38601926 4281623267
-1.1082399 0.61590266 0.38556615 4281623267
-1.1103818 0.62759066 0.38586873 4281623267
-1.1095231 0.62335145 0.38462505 4281623267
-1.1115698 0.63456827 0.38478944 4281623267
-1.1132345 0.64390111 0.38440105 4281623267
-1.1151768 0.65478939 0.38394797 4281623267
-1.1172409 0.66572142 0.38507089 4281623267
-1.1189234 0.67476952 0.38564104 4281623267
-1.1207924 0.68483084 0.38624796 4281623267
-1.1198939 0.68123233 0.38284752 4281623267
-1.122537 0.69488698 0.38514814 4281623267
-1.1244905 0.70559394 0.38530502 4281623267
-1.126242 0.71554029 0.38457555 4281623267
-1.1279068 0.72487307 0.38418719 4281623267
-1.1303703 0.73740453 0.38682139 4281623267
-1.1293784 0.73330444 0.38338545 4281623267
-1.1315436 0.74476904 0.38457292 4281623267
-1.1236142 0.74944663 0.38999927 4281623267
-1.1336999 0.75607014 0.38604462 4281623267
-1.1353649 0.76540291 0.38565624 4281623267
-1.1370298 0.77473569 0.38526785 4281623267
-1.1386948 0.78406852 0.3848795 4281623267
-1.1408278 0.7958988 0.38470274 4281623267
-1.1396828 0.79024649 0.38304454 4281623267
-1.152123 0.80773091 0.38441241 4281623267
-1.1422951 0.80399609 0.38468137 4281623267
-1.1537738 0.81612885 0.38617775 4281623267
-1.1554475 0.82551044 0.38578737 4281623267
-1.1571209 0.83489209 0.38539693 4281623267
-1.1587945 0.84427357 0.38500652 4281623267
-1.1788012 0.85869157 0.38598084 4281623267
-1.1679542 0.85453683 0.38447803 4281623267
-1.1597878 0.85048389 0.38316196 4281623267
-1.1864157 0.86698532 0.38593575 4281623267
-1.179491 0.86307704 0.38451695 4281623267
-1.1902989 0.87212068 0.38448259 4281623267
-1.181464 0.87206167 0.38926849 4281623267
-0.68125993 0.46807575 0.39538741 4281623267
-0.69262338 0.47835991 0.39365974 4281623267
-0.68460369 0.4755033 0.39559928 4281623267
-0.73317915 0.48887593 0.39269873 4281623267
-0.72615856 0.4892785 0.39323193 4281623267
-0.71075916 0.48798528 0.39487195 4281623267
-0.70574141 0.48758981 0.39692652 4281623267
-0.6963315 0.48461735 0.39401689 4281623267
-0.68887788 0.48378149 0.3987205 4281623267
-0.76543719 0.49861345 0.39166343 4281623267
-0.75368357 0.4971031 0.39260024 4281623267
-0.74323046 0.49772882 0.39677379 4281623267
-0.73597682 0.49479914 0.39485484 4281623267
-0.72595215 0.49345419 0.39600989 4281623267
-0.71375877 0.49167442 0.39579022 4281623267
-0.8516801 0.50746596 0.39262766 4281623267
-0.84552431 0.50672358 0.39390519 4281623267
-0.83781147 0.50703609 0.39565921 4281623267
-0.82251787 0.5085116 0.39533684 4281623267
-0.81669778 0.50497484 0.39417347 4281623267
-0.80299455 0.50535494 0.39534616 4281623267
-0.79398674 0.503654 0.39339799 4281623267
-0.7857545 0.50316894 0.39349368 4281623267
-0.7740624 0.50417626 0.39659995 4281623267
-0.76615518 0.50124884 0.39498439 4281623267
-0.75334841 0.50217801 0.39590472 4281623267
-0.7455343 0.50134981 0.39841747 4281623267
-1.1259475 0.51355559 0.39403763 4281623267
-1.1170655 0.51495141 0.39451933 4281623267
-1.1077677 0.51401538 0.39509806 4281623267
-1.0949153 0.51306027 0.39588749 4281623267
-1.0812947 0.51412058 0.39508343 4281623267
-1.0644087 0.51676869 0.39445433 4281623267
-1.0560929 0.51564556 0.39499554 4281623267
-1.0480555 0.51608348 0.39547178 4281623267
-1.0332607 0.5164178 0.39575073 4281623267
-1.0223464 0.5156638 0.39324325 4281623267
-1.014259 0.51550752 0.39451709 4281623267
-1.0064833 0.51618999 0.39800146 4281623267
-0.9965179 0.51650578 0.39559984 4281623267
-0.98281902 0.51612389 0.39498362 4281623267
-0.97554302 0.51549256 0.39457718 4281623267
-0.96521467 0.51451594 0.39509824 4281623267
-0.95401347 0.51442921 0.3954066 4281623267
-0.94500726 0.5156945 0.39449638 4281623267
-0.93778461 0.51508296 0.39478078 4281623267
-0.92779732 0.51378351 0.39456323 4281623267
-0.91550171 0.51515085 0.39644429 4281623267
-0.90436745 0.51546085 0.39511707 4281623267
-0.89403713 0.51533967 0.39502856 4281623267
-0.88526225 0.51361018 0.39543757 4281623267
-0.8756777 0.51097184 0.39444286 4281623267
-0.86544925 0.51160586 0.3951239 4281623267
-0.85454583 0.51172733 0.39467144 4281623267
-0.84655005 0.51060283 0.39836389 4281623267
-1.1072271 0.55648381 0.39381054 4281623267
-1.1055574 0.56567669 0.39521652 4281623267
-1.1016345 0.57567984 0.39512935 4281623267
-1.1121796 0.58167768 0.39910656 4281623267
-1.1032438 0.5847016 0.39475393 4281623267
-1.105086 0.59438938 0.39592862 4281623267
-1.1069306 0.6048454 0.39520663 4281623267
-1.108884 0.61555254 0.39536351 4281623267
-1.1107353 0.62589854 0.39501187 4281623267
-1.1098369 0.62230003 0.39161143 4281623267
-1.1123004 0.63483149 0.39424565 4281623267
-1.1139653 0.64416432 0.39385727 4281623267
-1.1160294 0.65509635 0.39498019 4281623267
-1.1180935 0.6660285 0.39610311 4281623267
-1.1202354 0.67771649 0.3964057 4281623267
-1.1193767 0.67347723 0.39516199 4281623267
-1.1214232 0.68469417 0.39532638 4281623267
-1.1230882 0.69402695 0.39493799 4281623267
-1.1250304 0.70491511 0.39448491 4281623267
-1.1269727 0.7158035 0.39403176 4281623267
-1.1287766 0.72545099 0.3947778 4281623267
-1.1306543 0.73532349 0.39598075 4281623267
-1.1297475 0.73135805 0.39338446 4281623267
-1.1322013 0.74347019 0.39693782 4281623267
-1.1234077 0.74744171 0.39217556 4281623267
-1.1342156 0.75538248 0.39490929 4281623267
-1.1251692 0.75435042 0.3992129 4281623267
-1.1360955 0.76566601 0.39511251 4281623267
-1.1377605 0.77499884 0.39472413 4281623267
-1.1402239 0.7875303 0.39735833 4281623267
-1.1393255 0.78393185 0.39395791 4281623267
-1.1413676 0.79521996 0.3938826 4281623267
-1.1527123 0.80696774 0.39448953 4281623267
-1.1432273 0.80462283 0.39601588 4281623267
-1.1542921 0.81543761 0.39508873 4281623267
-1.1451845 0.81406093 0.39941001 4281623267
-1.1561821 0.82577497 0.395293 4281623267
-1.1578555 0.83515656 0.39490259 4281623267
-1.16287 0.84809512 0.39421889 4281623267
-1.1593345 0.84363216 0.3940967 4281623267
-1.1737273 0.85760766 0.39462906 4281623267
-1.1668416 0.85264683 0.39478236 4281623267
-1.1818285 0.86527187 0.39549816 4281623267
-1.1710484 0.86165428 0.39815906 4281623267
-1.1818348 0.87219524 0.394068 4281623267
-1.1731329 0.87269437 0.39929307 4281623267
-0.68346691 0.4677065 0.40447927 4281623267
-0.68336928 0.47557461 0.40575752 4281623267
-0.69336981 0.48804536 0.40318 4281623267
-0.68555123 0.48529223 0.40529293 4281623267
-0.74105263 0.4989773 0.4058063 4281623267
-0.73569757 0.49763367 0.40557295 4281623267
-0.7267251 0.49393126 0.40432724 4281623267
-0.71427727 0.49388155 0.40526226 4281623267
-0.70351106 0.49415037 0.40599835 4281623267
-0.69420499 0.49173343 0.40548161 4281623267
-0.8735112 0.50891775 0.40910447 4281623267
-0.84169102 0.50834388 0.40447503 4281623267
-0.83351707 0.50925326 0.40469477 4281623267
-0.8236739 0.5073756 0.40537912 4281623267
-0.81443328 0.50515157 0.40469703 4281623267
-0.80340505 0.50522196 0.4044424 4281623267
-0.79483807 0.50396055 0.40441489 4281623267
-0.78555644 0.50534689 0.40543255 4281623267
-0.77461398 0.50561577 0.40551898 4281623267
-0.7653569 0.50426596 0.40456846 4281623267
-0.75400966 0.50356215 0.40549058 4281623267
-0.74482125 0.50132799 0.40505746 4281623267
-1.1178073 0.51521856 0.40411833 4281623267
-1.1064477 0.51396376 0.4051663 4281623267
-1.0933349 0.51348031 0.40469143 4281623267
-1.0820215 0.51438236 0.40449023 4281623267
-1.0741075 0.51574248 0.404356 4281623267
-1.0652176 0.51677334 0.40564322 4281623267
-1.0567329 0.51516271 0.40506923 4281623267
-1.0457773 0.51664108 0.40484825 4281623267
-1.0356022 0.51648742 0.40542325 4281623267
-1.0232687 0.51622909 0.40459323 4281623267
-1.0150381 0.51523125 0.40599808 4281623267
-1.005237 0.51642233 0.40484846 4281623267
-0.99501354 0.5156256 0.40385047 4281623267
-0.98354602 0.51570272 0.40610662 4281623267
-0.97630411 0.51522261 0.40579322 4281623267
-0.9633401 0.51519036 0.40506837 4281623267
-0.95256716 0.51416165 0.40426818 4281623267
-0.94553453 0.51454973 0.40467182 4281623267
-0.93622941 0.51342857 0.40561655 4281623267
-0.92982662 0.51296514 0.40277123 4281623267
-0.9160803 0.51666933 0.40064189 4281623267
-0.9054172 0.5172841 0.40507096 4281623267
-0.89503443 0.51673269 0.40533814 4281623267
-0.88368666 0.51337796 0.40477163 4281623267
-0.87367731 0.51152861 0.40484774 4281623267
-0.86360073 0.51214308 0.40485922 4281623267
-0.85358763 0.51318735 0.40466884 4281623267
-0.84517765 0.51177335 0.40463531 4281623267
-0.91011548 0.52017057 0.4080109 4281623267
-0.90978807 0.52005267 0.40377426 4281623267
-1.1079999 0.55649614 0.40448025 4281623267
-1.1104038 0.5678699 0.40919781 4281623267
-1.1094152 0.56361216 0.40620279 4281623267
-1.1112406 0.57256067 0.4090026 4281623267
-1.1024967 0.5764063 0.4052425 4281623267
-1.1041518 0.5853197 0.40577322 4281623267
-1.1058167 0.59465253 0.40538487 4281623267
-1.1074816 0.60398525 0.40499648 4281623267
-1.1102563 0.61953998 0.40434918 4281623267
-1.1091465 0.61331815 0.4046081 4281623267
-1.1113664 0.62576187 0.40409029 4281623267
-1.1131352 0.6354233 0.40431935 4281623267
-1.1148177 0.64447123 0.40488955 4281623267
-1.116691 0.65446132 0.40573612 4281623267
-1.1186446 0.6651684 0.40589297 4281623267
-1.1206825 0.67652589 0.40558431 4281623267
-1.1198124 0.67246968 0.4037244 4281623267
-1.1221539 0.68495727 0.40478262 4281623267
-1.1238189 0.6942901 0.40439421 4281623267
-1.1257612 0.70517826 0.40394112 4281623267
-1.1278253 0.71611047 0.40506402 4281623267
-1.1302886 0.72864193 0.40769827 4281623267
-1.1293125 0.72428763 0.40511823 4281623267
-1.1312865 0.73523921 0.40494421 4281623267
-1.1225839 0.73604417 0.40939242 4281623267
-1.1329417 0.74415267 0.40547493 4281623267
-1.1352223 0.75661838 0.40574509 4281623267
-1.1255326 0.75448132 0.4039163 4281623267
-1.1368263 0.76592922 0.4045687 4281623267
-1.1474329 0.77287728 0.40701097 4281623267
-1.1384606 0.77525103 0.4037863 4281623267
-1.1503447 0.78855729 0.40794456 4281623267
-1.1443799 0.78540128 0.40583536 4281623267
-1.139679 0.78223968 0.40310103 4281623267
-1.1510249 0.79172862 0.4093987 4281623267
-1.1419713 0.79462874 0.40372503 4281623267
-1.1440068 0.80490369 0.40610254 4281623267
-1.1555287 0.81851661 0.4044773 4281623267
-1.1458254 0.81491554 0.40613672 4281623267
-1.1569165 0.82603955 0.40479866 4281623267
-1.1585901 0.83542109 0.40440822 4281623267
-1.1627932 0.84711313 0.4050225 4281623267
-1.1597058 0.84167552 0.40414798 4281623267
-1.1706518 0.85636681 0.40594792 4281623267
-1.1663444 0.85182256 0.40286493 4281623267
-1.1812987 0.86491013 0.40494227 4281623267
-1.1718649 0.8626833 0.40688014 4281623267
-1.1736248 0.87287146 0.40565944 4281623267
-0.68211997 0.46789619 0.41558287 4281623267
-0.68387246 0.47700846 0.41696131 4281623267
-0.67728436 0.47530326 0.41467085 4281623267
-0.69115126 0.48910707 0.41682026 4281623267
-0.68532979 0.48588976 0.41483408 4281623267
-0.67818087 0.48090851 0.41300601 4281623267
-0.74418491 0.49848112 0.41656333 4281623267
-0.7350595 0.49901164 0.41443682 4281623267
-0.7258606 0.49527657 0.41419286 4281623267
-0.7158798 0.49410284 0.41513833 4281623267
-0.70499772 0.49403885 0.41660127 4281623267
-0.69520712 0.49252707 0.41400453 4281623267
-0.68621194 0.49181992 0.4121536 4281623267
-0.87372464 0.50899464 0.41186666 4281623267
-0.8244189 0.50821882 0.41433302 4281623267
-0.81537652 0.50630945 0.41484907 4281623267
-0.80357242 0.50703293 0.41417903 4281623267
-0.795232 0.50542456 0.41559628 4281623267
-0.7876727 0.50546288 0.41428983 4281623267
-0.77520537 0.50789714 0.41581455 4281623267
-0.76379544 0.50679231 0.41422209 4281623267
-0.75494903 0.50608623 0.41459733 4281623267
-0.74768454 0.50306439 0.41574365 4281623267
-0.73285675 0.50079441 0.41472819 4281623267
-0.72583079 0.50054038 0.41683877 4281623267
-1.1171306 0.51752132 0.4143582 4281623267
-1.1058662 0.51531309 0.41387796 4281623267
-1.0921526 0.51549917 0.41499025 4281623267
-1.0836639 0.51786971 0.41847163 4281623267
-1.0753582 0.51811439 0.41571406 4281623267
-1.0659803 0.5171299 0.41530779 4281623267
-1.0575429 0.51521665 0.41615173 4281623267
-1.0448134 0.51603884 0.4141748 4281623267
-1.0321033 0.51617402 0.41419482 4281623267
-1.0239103 0.51552755 0.41523775 4281623267
-1.0156244 0.51460707 0.41568258 4281623267
-1.0042487 0.51378727 0.41541743 4281623267
-0.9961561 0.51421094 0.41516173 4281623267
-0.9845652 0.51811868 0.41415012 4281623267
-0.97724622 0.51692194 0.41456845 4281623267
-0.96613598 0.51633286 0.41457731 4281623267
-0.95363653 0.51615548 0.41406727 4281623267
-0.94528162 0.51664674 0.41565165 4281623267
-0.9342795 0.51515299 0.41552398 4281623267
-0.92391223 0.51384062 0.41743422 4281623267
-0.91027302 0.51761878 0.41660017 4281623267
-0.9037025 0.51663578 0.41450372 4281623267
-0.89555109 0.51588488 0.41462013 4281623267
-0.88387305 0.51442462 0.41530409 4281623267
-0.8744244 0.51179767 0.41451541 4281623267
-0.86151522 0.51320148 0.41564593 4281623267
-0.85428971 0.51344013 0.41375411 4281623267
-0.84595728 0.51205409 0.41472435 4281623267
-0.83482248 0.51220846 0.41534746 4281623267
-0.82630569 0.51139343 0.41585553 4281623267
-0.95471114 0.52029604 0.41854537 4281623267
-0.91055202 0.52032775 0.41365972 4281623267
-1.108662 0.5555374 0.41605547 4281623267
-1.1106032 0.56599087 0.41667786 4281623267
-1.1095771 0.56098795 0.41503558 4281623267
-1.1032567 0.57662797 0.41520765 4281623267
-1.1048827 0.58558279 0.41522944 4281623267
-1.1065475 0.59491563 0.41484109 4281623267
-1.1082124 0.60424846 0.41445267 4281623267
-1.1106255 0.61759359 0.41434816 4281623267
-1.1094954 0.61169708 0.4135116 4281623267
-1.1122187 0.62606889 0.41512251 4281623267
-1.1138664 0.63513082 0.41517574 4281623267
-1.1156703 0.64477831 0.41592181 4281623267
-1.1172134 0.65406728 0.41395736 4281623267
-1.1087151 0.65575719 0.41901201 4281623267
-1.1202316 0.66970962 0.41646215 4281623267
-1.1173676 0.66467035 0.41485667 4281623267
-1.1095431 0.6603992 0.4188188 4281623267
-1.12122 0.67588764 0.41462719 4281623267
-1.1228846 0.68522036 0.41423881 4281623267
-1.1245495 0.69455326 0.41385043 4281623267
-1.1263362 0.7039299 0.41503811 4281623267
-1.1282988 0.71448952 0.41569105 4281623267
-1.1305361 0.72665167 0.41612121 4281623267
-1.1296659 0.72259545 0.41426134 4281623267
-1.1325625 0.73819399 0.41519007 4281623267
-1.1230683 0.73621869 0.41566363 4281623267
-1.1336724 0.74441582 0.41493118 4281623267
-1.135517 0.7548719 0.41420916 4281623267
-1.1374705 0.76557904 0.41436601 4281623267
-1.1401422 0.7787677 0.41823521 4281623267
-1.1391873 0.77518922 0.4140012 4281623267
-1.1506779 0.78721422 0.41593102 4281623267
-1.1419879 0.78279686 0.41553214 4281623267
-1.1520333 0.79465228 0.41601801 4281623267
-1.1533107 0.80133057 0.41692966 4281623267
