# .PCD v0.7 - Point Cloud Data file format
VERSION 0.7
FIELDS x y z rgba
SIZE 4 4 4 4
TYPE F F F U
COUNT 1 1 1 1
WIDTH 1093
HEIGHT 1
VIEWPOINT 0 0 0 1 0 0 0
POINTS 1093
DATA ascii
-1.1655926 0.83828169 0.48705983 4287096158
-1.1579957 0.83476245 0.48495546 4287096158
-1.1749587 0.84915644 0.48744878 4287096158
-1.1662633 0.84517568 0.48473895 4287096158
-1.1585531 0.84098315 0.48205012 4287096158
-1.1755214 0.8554343 0.48451674 4287096158
-1.1669344 0.85206962 0.48241797 4287096158
-1.1847553 0.86508846 0.48508513 4287096158
-1.1762378 0.86110711 0.48538989 4287096158
-1.1937675 0.87365562 0.48406151 4287096158
-1.1857406 0.8731721 0.48572668 4287096158
-1.1866751 0.88028926 0.48742479 4287096158
-1.12167 0.51964116 0.49528563 4287096158
-1.1053963 0.51829386 0.49565065 4287096158
-1.0903363 0.51950437 0.49441066 4287096158
-1.0832415 0.51988328 0.49307001 4287096158
-1.0752366 0.51810235 0.49768296 4287096158
-1.0635186 0.51891625 0.49689463 4287096158
-1.0529435 0.51994711 0.49225584 4287096158
-1.0459058 0.51785374 0.49678898 4287096158
-1.0247016 0.51961941 0.49287859 4287096158
-1.0126679 0.51775384 0.49433798 4287096158
-1.0045172 0.51856697 0.49475169 4287096158
-0.99633586 0.51939791 0.49460825 4287096158
-0.9720065 0.51812154 0.49407741 4287096158
-0.96510392 0.51676148 0.49700016 4287096158
-0.95312607 0.51694226 0.49534267 4287096158
-0.94555348 0.5145635 0.49480328 4287096158
-1.1367215 0.52145153 0.49038544 4287096158
-1.125383 0.52386183 0.49544191 4287096158
-1.1137002 0.5204258 0.49540126 4287096158
-1.1057336 0.52123964 0.49551558 4287096158
-1.0926136 0.52217662 0.49351034 4287096158
-1.0835201 0.52005219 0.49744931 4287096158
-1.0753828 0.5208813 0.49464557 4287096158
-1.0647986 0.5215705 0.49337721 4287096158
-1.0532346 0.52100784 0.49507686 4287096158
-1.0462308 0.52069187 0.49665883 4287096158
-1.0349623 0.5221411 0.49424893 4287096158
-1.0252012 0.52252769 0.49556351 4287096158
-1.0149336 0.52119964 0.49512172 4287096158
-0.98477972 0.52249765 0.49430096 4287096158
-0.97598046 0.52229172 0.49599752 4287096158
-1.1039292 0.56706941 0.49354708 4287096158
-1.09639 0.56934249 0.49800077 4287096158
-1.1119587 0.57545173 0.4933266 4287096158
-1.1048937 0.57447743 0.49517557 4287096158
-1.0968912 0.57371998 0.49780008 4287096158
-1.1210406 0.5843792 0.49276716 4287096158
-1.11314 0.58439147 0.49558526 4287096158
-1.1220875 0.59382904 0.49173793 4287096158
-1.1144539 0.59466493 0.49744394 4287096158
-1.1227576 0.60029584 0.49024957 4287096158
-1.115501 0.60501128 0.49463993 4287096158
-1.1090994 0.60841453 0.49903205 4287096158
-1.1156012 0.61564499 0.49515751 4287096158
-1.109771 0.61428034 0.49876311 4287096158
-1.1131129 0.62445796 0.49530649 4287096158
-1.1150354 0.63538104 0.49479485 4287096158
-1.1201822 0.6451298 0.49428314 4287096158
-1.117285 0.64447099 0.49435353 4287096158
-1.1143936 0.65556645 0.49509889 4287096158
-1.1155542 0.66554981 0.49493644 4287096158
-1.123912 0.67617369 0.4958249 4287096158
-1.1163938 0.67288214 0.49460027 4287096158
-1.1335883 0.68950546 0.49658865 4287096158
-1.1249238 0.68501073 0.49541974 4287096158
-1.1341718 0.69536859 0.49482998 4287096158
-1.1255789 0.6922608 0.49212229 4287096158
-1.1351886 0.7042495 0.49442279 4287096158
-1.1364845 0.71495235 0.49512395 4287096158
-1.1376559 0.72502875 0.49495998 4287096158
-1.1387728 0.73460591 0.49486473 4287096158
-1.1403644 0.74760711 0.49601063 4287096158
-1.1397842 0.74284768 0.49563289 4287096158
-1.1411401 0.75468886 0.49509001 4287096158
-1.1423265 0.7650497 0.49461496 4287096158
-1.1521735 0.77805758 0.49890909 4287096158
-1.1435128 0.77541071 0.49413994 4287096158
-1.1527466 0.78486443 0.49510348 4287096158
-1.1440961 0.7812739 0.49238127 4287096158
-1.1539236 0.79499036 0.4949387 4287096158
-1.155226 0.80574596 0.49564335 4287096158
-1.1562479 0.81467056 0.49523416 4287096158
-1.1649745 0.82771307 0.49756861 4287096158
-1.1573763 0.82466644 0.49450368 4287096158
-1.1658576 0.8365891 0.49490622 4287096158
-1.1583669 0.83394945 0.49285305 4287096158
-1.1752598 0.8484078 0.49403062 4287096158
-1.1669014 0.84500659 0.49587354 4287096158
-1.184739 0.85946399 0.49597111 4287096158
-1.1761258 0.85545164 0.49471501 4287096158
-1.1937634 0.86942184 0.49239242 4287096158
-1.1854299 0.86549765 0.49569452 4287096158
-1.1947159 0.87564117 0.49617568 4287096158
-1.1864983 0.87456733 0.49578479 4287096158
-1.1870606 0.88052309 0.49348733 4287096158
-1.1221453 0.51992935 0.5027585 4287096158
-1.1140233 0.51786703 0.50594765 4287096158
-1.1059611 0.51863635 0.50453013 4287096158
-1.090874 0.51874417 0.50502062 4287096158
-1.0837444 0.51748443 0.50634116 4287096158
-1.0756985 0.51838237 0.50494516 4287096158
-1.0644754 0.51864541 0.50566065 4287096158
-1.053528 0.51764864 0.50670952 4287096158
-1.0464499 0.51818365 0.50534427 4287096158
-1.0394659 0.51879942 0.50541019 4287096158
-1.0120144 0.5181334 0.50300932 4287096158
-1.0051354 0.51894182 0.50447005 4287096158
-0.99817055 0.51972181 0.50453484 4287096158
-0.97180837 0.51866519 0.50427651 4287096158
-0.96577775 0.51817226 0.50560755 4287096158
-0.9552089 0.5170939 0.5052622 4287096158
-0.94614786 0.51492393 0.50414979 4287096158
-1.130137 0.52579033 0.50690013 4287096158
-1.1250172 0.52292919 0.50558323 4287096158
-1.1143622 0.52082729 0.50581193 4287096158
-1.0913123 0.52226877 0.50544655 4287096158
-1.0837985 0.52022111 0.50182861 4287096158
-1.0757524 0.52110535 0.50045532 4287096158
-1.0535811 0.52033377 0.5022819 4287096158
-1.0465028 0.52085686 0.50093651 4287096158
-1.0257282 0.52173078 0.50606793 4287096158
-1.0151379 0.52206147 0.50418955 4287096158
-1.0058748 0.52324748 0.50844496 4287096158
-0.99224567 0.52007246 0.50598383 4287096158
-0.98535514 0.52221221 0.50460738 4287096158
-0.97604716 0.52250659 0.50438529 4287096158
-1.1157322 0.56569612 0.50826728 4287096158
-1.1045852 0.56746715 0.50386161 4287096158
-1.0965765 0.56945556 0.50093311 4287096158
-1.112648 0.57504737 0.5057984 4287096158
-1.1052997 0.57472372 0.50156075 4287096158
-1.0970778 0.57383311 0.50073242 4287096158
-1.1215198 0.58026212 0.50904655 4287096158
-1.1137211 0.58470178 0.50480837 4287096158
-1.115013 0.59539551 0.50545853 4287096158
-1.1154994 0.60117275 0.50222856 4287096158
-1.1092503 0.60668653 0.50501567 4287096158
-1.1104364 0.61682838 0.50497252 4287096158
-1.1098099 0.61157477 0.50479162 4287096158
-1.1137513 0.62507445 0.50488788 4287096158
-1.1200724 0.63958085 0.50343275 4287096158
-1.1158371 0.63484633 0.5048731 4287096158
-1.1204096 0.64252651 0.50329769 4287096158
-1.1138923 0.6460436 0.50550747 4287096158
-1.1148463 0.65445155 0.50497288 4287096158
-1.1161052 0.66489136 0.50556773 4287096158
-1.1325557 0.67510563 0.50767791 4287096158
-1.1242423 0.67466086 0.50441879 4287096158
-1.1168818 0.67181349 0.50498199 4287096158
-1.1336167 0.68621701 0.50359285 4287096158
-1.1254325 0.68486226 0.50432175 4287096158
-1.1347336 0.69610298 0.50288415 4287096158
-1.1269513 0.69583434 0.50826633 4287096158
-1.1358505 0.70465094 0.50483346 4287096158
-1.1277201 0.70178276 0.50947613 4287096158
-1.1370634 0.71471012 0.50540376 4287096158
-1.1383181 0.72543025 0.50537068 4287096158
-1.1393349 0.73431098 0.50496352 4287096158
-1.1405848 0.74508613 0.50474036 4287096158
-1.1398237 0.74011689 0.50171757 4287096158
-1.1418073 0.75534379 0.50508273 4287096158
-1.1429356 0.76514381 0.50474185 4287096158
-1.1522322 0.77509421 0.50578237 4287096158
-1.1436914 0.77184606 0.50423592 4287096158
-1.1534117 0.78526783 0.50556546 4287096158
-1.1544336 0.79419243 0.50515634 4287096158
-1.1556259 0.80460447 0.50467896 4287096158
-1.156818 0.81501645 0.50420159 4287096158
-1.1652555 0.82603002 0.50566512 4287096158
-1.1576996 0.82227391 0.50472438 4287096158
-1.1662065 0.83481485 0.50433153 4287096158
-1.1758139 0.84688139 0.50644022 4287096158
-1.1672258 0.84297925 0.50538927 4287096158
-1.1852177 0.85863143 0.50572652 4287096158
-1.1766717 0.85498446 0.5048815 4287096158
-1.1860081 0.8658483 0.50478834 4287096158
-1.1953 0.87634802 0.5046615 4287096158
-1.1867372 0.87260687 0.50371933 4287096158
-1.1144017 0.51809645 0.51189667 4287096158
-1.1064317 0.51892173 0.51192969 4287096158
-1.0996999 0.51947165 0.51639485 4287096158
-1.0843014 0.51782221 0.51509976 4287096158
-1.0763451 0.51877451 0.51511228 4287096158
-1.0645707 0.51866531 0.51519924 4287096158
-1.0540745 0.51798004 0.51530325 4287096158
-1.0443261 0.51883614 0.51590168 4287096158
-1.0399172 0.51907313 0.51250756 4287096158
-1.0056478 0.51839542 0.51423067 4287096158
-0.99586052 0.51655811 0.51439077 4287096158
-0.98544586 0.5159232 0.51862019 4287096158
-0.97403508 0.51863384 0.51409626 4287096158
-0.96605015 0.5173353 0.51187897 4287096158
-0.95467931 0.51523912 0.51477301 4287096158
-1.1464363 0.52181846 0.5175246 4287096158
-1.1349815 0.52397108 0.51446956 4287096158
-1.1231219 0.52249891 0.51419061 4287096158
-1.1149298 0.52117139 0.51473546 4287096158
-1.1047441 0.52217954 0.51673418 4287096158
-1.0933313 0.52126741 0.51429385 4287096158
-1.0846339 0.52072781 0.51496655 4287096158
-1.0262932 0.5218873 0.51532084 4287096158
-1.0134134 0.52350265 0.51603675 4287096158
-1.0062494 0.5232175 0.51484406 4287096158
-0.99904937 0.52025473 0.51835412 4287096158
-0.97858971 0.52191395 0.51018572 4287096158
-0.95975232 0.52117461 0.51716578 4287096158
-1.127714 0.5592941 0.51892024 4287096158
-1.1216499 0.56658107 0.51562876 4287096158
-1.1197698 0.56267262 0.51432258 4287096158
-1.1212201 0.57457101 0.51526695 4287096158
-1.1218982 0.58049154 0.51499552 4287096158
-1.1147344 0.58837372 0.51467568 4287096158
-1.1155082 0.59491265 0.51479948 4287096158
-1.1152384 0.60551 0.51908469 4287096158
-1.1094791 0.6045509 0.51312685 4287096158
-1.1129763 0.61472702 0.51479042 4287096158
-1.1119959 0.62518209 0.51479566 4287096158
-1.1131835 0.63508254 0.51525432 4287096158
-1.1143732 0.64518291 0.51535487 4287096158
-1.1154292 0.65455681 0.51462984 4287096158
-1.1326344 0.66964388 0.51984733 4287096158
-1.1243491 0.66890061 0.51765507 4287096158
-1.1166046 0.6648221 0.5141592 4287096158
-1.1331398 0.67576593 0.5162558 4287096158
-1.1246328 0.67359549 0.5131405 4287096158
-1.1172568 0.67204076 0.51087606 4287096158
-1.1341457 0.68394047 0.5170635 4287096158
-1.1258278 0.68487364 0.51099265 4287096158
-1.1356851 0.69628638 0.51862586 4287096158
-1.127178 0.69460118 0.51454949 4287096158
-1.1284337 0.70495677 0.51526076 4287096158
-1.1378213 0.71686488 0.51395762 4287096158
-1.1294513 0.71340567 0.51572055 4287096158
-1.1388855 0.72577441 0.51429415 4287096158
-1.140286 0.73672438 0.51627523 4287096158
-1.1397079 0.73270082 0.5144732 4287096158
-1.1411833 0.74507356 0.51489919 4287096158
-1.1423924 0.75517285 0.51533002 4287096158
-1.1517681 0.76627713 0.51541942 4287096158
-1.1433116 0.76289248 0.51557213 4287096158
-1.15279 0.77520174 0.5150103 4287096158
-1.153982 0.78561372 0.51453292 4287096158
-1.155076 0.79485875 0.51470792 4287096158
-1.1562912 0.80500787 0.51514095 4287096158
-1.1574835 0.81541997 0.51466358 4287096158
-1.1656824 0.82536227 0.51421636 4287096158
-1.1585401 0.82325822 0.51699919 4287096158
-1.1752143 0.83813655 0.51364052 4287096158
-1.1668041 0.83438301 0.51530641 4287096158
-1.1594718 0.8304671 0.51846534 4287096158
-1.1759979 0.84419912 0.51487356 4287096158
-1.1676793 0.84047395 0.5180344 4287096158
-1.1854539 0.85709023 0.51278138 4287096158
-1.1771171 0.85381776 0.51473475 4287096158
-1.1865513 0.86552978 0.51461357 4287096158
-1.1782522 0.86232865 0.51706433 4287096158
-1.2130883 0.87820864 0.51184398 4287096158
-1.2039104 0.87733448 0.51187295 4287096158
-1.1958797 0.87578279 0.51559585 4287096158
-1.1873739 0.87229103 0.5151211 4287096158
-1.2045511 0.88055742 0.51632416 4287096158
-1.1968952 0.88260448 0.51924974 4287096158
-1.1465616 0.51852572 0.52617812 4287096158
-1.1384879 0.51972914 0.52370578 4287096158
-1.1155367 0.5187847 0.52974355 4287096158
-1.1001685 0.51975572 0.5237624 4287096158
-1.099981 0.51964211 0.52081537 4287096158
-1.0849512 0.51821631 0.52531815 4287096158
-1.0768894 0.51795161 0.52595866 4287096158
-1.066201 0.51741076 0.52536619 4287096158
-1.0547121 0.51836669 0.52532935 4287096158
-1.0477195 0.51895356 0.52530664 4287096158
-1.0267068 0.51823002 0.52957994 4287096158
-1.0166241 0.51898926 0.52812362 4287096158
-1.0064131 0.51885945 0.52626288 4287096158
-0.99593854 0.51629668 0.52476794 4287096158
-0.98607272 0.51714921 0.52679861 4287096158
-0.97552145 0.51766461 0.52521366 4287096158
-0.96013045 0.51891041 0.52805829 4287096158
-0.95500326 0.51808065 0.52486265 4287096158
-0.94750649 0.51574785 0.52551335 4287096158
-1.1469183 0.52211076 0.52510279 4287096158
-1.1305983 0.52050972 0.52518582 4287096158
-1.123571 0.52079397 0.525177 4287096158
-1.1155918 0.52157295 0.52514613 4287096158
-1.1035655 0.52256483 0.52447253 4287096158
-1.092468 0.52170235 0.5261333 4287096158
-1.085284 0.52112192 0.52518493 4287096158
-1.0627137 0.52001685 0.52092236 4287096158
-1.034065 0.52301633 0.52512884 4287096158
-1.0269192 0.52226704 0.52516741 4287096158
-1.0172431 0.52156621 0.52324581 4287096158
-1.0065995 0.52240121 0.5223918 4287096158
-0.999313 0.52041465 0.52249992 4287096158
-0.9733972 0.52025759 0.52801251 4287096158
-0.96026599 0.5214861 0.52524304 4287096158
-1.1279042 0.55940938 0.52190936 4287096158
-1.1208084 0.56674582 0.52382004 4287096158
-1.1215986 0.57480043 0.52121592 4287096158
-1.113964 0.57596296 0.52625769 4287096158
-1.1222764 0.58072102 0.52094448 4287096158
-1.1149775 0.58468354 0.52611208 4287096158
-1.1247082 0.59734666 0.5291214 4287096158
-1.1160152 0.59435868 0.52448249 4287096158
-1.1252167 0.60178715 0.52891785 4287096158
-1.117337 0.60541981 0.52490723 4287096158
-1.1183543 0.61386871 0.52536702 4287096158
-1.1126331 0.62556851 0.52481556 4287096158
-1.1136407 0.63436729 0.52441216 4287096158
-1.1223719 0.64865065 0.52436531 4287096158
-1.1149096 0.64468944 0.52541506 4287096158
-1.1231705 0.65516543 0.52495629 4287096158
-1.1328236 0.66975862 0.52282178 4287096158
-1.124282 0.66469544 0.5248614 4287096158
-1.1336248 0.6754095 0.52516997 4287096158
-1.1253014 0.67199087 0.52764398 4287096158
-1.134274 0.68165708 0.52376616 4287096158
-1.1268479 0.68590331 0.52621555 4287096158
-1.136422 0.69811064 0.52748144 4287096158
-1.1277549 0.69457722 0.52436221 4287096158
-1.137152 0.7057156 0.52474892 4287096158
-1.1285672 0.7022965 0.52279538 4287096158
-1.1381917 0.71433473 0.52524769 4287096158
-1.1401703 0.72930825 0.52903086 4287096158
-1.1393254 0.72438824 0.52448881 4287096158
-1.1406591 0.7351141 0.52578485 4287096158
-1.1417819 0.74506092 0.52505797 4287096158
-1.142983 0.7552554 0.52515948 4287096158
-1.1440486 0.7647168 0.52442765 4287096158
-1.153681 0.77989453 0.52078396 4287096158
-1.1453446 0.77541959 0.5251289 4287096158
-1.1546043 0.78599095 0.5243156 4287096158
-1.1465356 0.78413057 0.52800727 4287096158
-1.1556643 0.79468703 0.52500576 4287096158
-1.1569566 0.8054114 0.52560288 4287096158
-1.1653084 0.81600058 0.52645981 4287096158
-1.1579685 0.81502199 0.52366507 4287096158
-1.1664461 0.82582527 0.5262242 4287096158
-1.1589805 0.82463264 0.52172726 4287096158
-1.1758858 0.83854371 0.52419865 4287096158
-1.167377 0.83473033 0.52431226 4287096158
-1.1596619 0.83058238 0.52145445 4287096158
-1.1764774 0.84448999 0.5224151 4287096158
-1.168789 0.84531713 0.52721012 4287096158
-1.1773255 0.85606045 0.5243184 4287096158
-1.169798 0.8538062 0.5274474 4287096158
-1.1873802 0.86780322 0.52413309 4287096158
-1.1790738 0.86499971 0.5256719 4287096158
-1.188394 0.87571692 0.52559227 4287096158
-1.1892575 0.883259 0.52524644 4287096158
-1.15534 0.51889968 0.53745037 4287096158
-1.1470748 0.51799482 0.53591967 4287096158
-1.134918 0.51755983 0.53586978 4287096158
-1.1238958 0.51822257 0.53577536 4287096158
-1.1159149 0.51901418 0.53569257 4287096158
-1.1081258 0.51994902 0.5385682 4287096158
-1.092613 0.51816934 0.53559744 4287096158
-1.0854347 0.51715755 0.53560311 4287096158
-1.0755101 0.51676643 0.53483999 4287096158
-1.0633012 0.51770663 0.53544992 4287096158
-1.0553497 0.51875335 0.53535539 4287096158
-1.0483543 0.51933855 0.53528786 4287096158
-1.0243075 0.51874852 0.53573745 4287096158
-1.015517 0.51928765 0.53439975 4287096158
-0.98662937 0.51917851 0.53219539 4287096158
-0.97506529 0.51774651 0.535622 4287096158
-0.96403551 0.51869601 0.53483146 4287096158
-0.95440388 0.51828712 0.53479493 4287096158
-0.94810086 0.51610833 0.5348599 4287096158
-1.1474003 0.522403 0.53268093 4287096158
-1.1010151 0.52136075 0.53490722 4287096158
-1.0929471 0.52108765 0.53546363 4287096158
-1.0637208 0.52062762 0.53675818 4287096158
-1.0346942 0.52339786 0.53502029 4287096158
-1.0275455 0.52264678 0.53501397 4287096158
-1.0043234 0.52045083 0.53553569 4287096158
-0.99554503 0.52108735 0.53420997 4287096158
-0.98253012 0.52261239 0.5356642 4287096158
-0.97674787 0.52028042 0.53346825 4287096158
-1.1215575 0.56706238 0.53587347 4287096158
-1.1144402 0.57586008 0.53452224 4287096158
-1.1155461 0.58475423 0.53559709 4287096158
-1.1156062 0.59556115 0.53509051 4287096158
-1.1179072 0.6053741 0.5346517 4287096158
-1.118919 0.61421114 0.53424656 4287096158
-1.1132891 0.62596631 0.53513008 4287096158
-1.1142966 0.63476509 0.53472668 4287096158
-1.1229665 0.64955944 0.53262591 4287096158
-1.1154979 0.64473122 0.53529167 4287096158
-1.1322244 0.6583764 0.53526264 4287096158
-1.1238294 0.65556496 0.53531563 4287096158
-1.1164989 0.65247631 0.5368669 4287096158
-1.1329024 0.66429693 0.5349912 4287096158
-1.1339358 0.67349392 0.53423852 4287096158
-1.1267159 0.67924458 0.53719503 4287096158
-1.1355141 0.68608212 0.53597885 4287096158
-1.1272829 0.68507081 0.53523362 4287096158
-1.1365908 0.69556421 0.53539127 4287096158
-1.1280259 0.69374472 0.53060013 4287096158
-1.137705 0.70508671 0.53535587 4287096158
-1.1388538 0.71473622 0.53565842 4287096158
-1.1403335 0.72743958 0.53550166 4287096158
-1.1396296 0.72181803 0.53473777 4287096158
-1.1412264 0.73545814 0.53470832 4287096158
-1.1422434 0.74433905 0.53430116 4287096158
-1.1515659 0.75369722 0.53695709 4287096158
-1.1434635 0.75440252 0.5349859 4287096158
-1.1447108 0.7651183 0.53483838 4287096158
-1.1541405 0.77463651 0.53899157 4287096158
-1.1457955 0.77459115 0.5344041 4287096158
-1.1553605 0.78644949 0.53620416 4287096158
-1.146914 0.78436005 0.53395617 4287096158
-1.1563348 0.79534519 0.53504771 4287096158
-1.1643379 0.80508566 0.53168595 4287096158
-1.1573378 0.80391234 0.53502923 4287096158
-1.1655352 0.81554234 0.53120655 4287096158
-1.1586025 0.81458855 0.5352543 4287096158
-1.1644528 0.82690513 0.53515714 4287096158
-1.1596979 0.8242768 0.53457683 4287096158
-1.166248 0.83487034 0.53480184 4287096158
-1.1678107 0.84367555 0.53563637 4287096158
-1.1733856 0.85535455 0.53543806 4287096158
-1.1697556 0.85007358 0.53413427 4287096158
-1.1878785 0.86651462 0.535124 4287096158
-1.179346 0.86252624 0.53518695 4287096158
-1.1972663 0.87718785 0.53628027 4287096158
-1.188742 0.87405652 0.5347783 4287096158
-1.1952587 0.88290173 0.53648686 4287096158
-1.1896498 0.88302892 0.53234243 4287096158
-1.1557376 0.51843548 0.54509991 4287096158
-1.1476187 0.51804382 0.54502726 4287096158
-1.136253 0.51781148 0.54430974 4287096158
-1.1244661 0.5185684 0.54474282 4287096158
-1.1163878 0.51930094 0.54312873 4287096158
-1.0930424 0.51775074 0.54369491 4287096158
-1.085807 0.51569337 0.54480994 4287096158
-1.063759 0.51798427 0.54264808 4287096158
-1.0559039 0.51855886 0.54512113 4287096158
-1.0490192 0.51974177 0.54574436 4287096158
-1.0241983 0.51917583 0.54499429 4287096158
-1.0146755 0.51974708 0.54485178 4287096158
-0.98022288 0.51785284 0.54588848 4287096158
-0.97462559 0.51692134 0.54404455 4287096158
-0.96461815 0.5157069 0.54398566 4287096158
-0.95481813 0.51580667 0.54672778 4287096158
-0.94861031 0.51641732 0.5428713 4287096158
-1.1249968 0.52165854 0.54759556 4287096158
-1.104491 0.52216405 0.54434925 4287096158
-1.0936775 0.52261686 0.54479373 4287096158
-1.0642701 0.52096069 0.54539597 4287096158
-1.0564959 0.5221014 0.54811537 4287096158
-1.0353231 0.52377927 0.54491174 4287096158
-1.0281718 0.52302653 0.5448606 4287096158
-1.0042075 0.52088094 0.54467124 4287096158
-0.9948718 0.52166498 0.54727674 4287096158
-0.9822486 0.52322763 0.54390365 4287096158
-1.1222645 0.56831747 0.54535109 4287096158
-1.1230519 0.57458001 0.54625589 4287096158
-1.1153421 0.57914829 0.54326677 4287096158
-1.1161296 0.58545059 0.54408967 4287096158
-1.1136234 0.59624833 0.544595 4287096158
-1.117107 0.60501862 0.5457148 4287096158
-1.1194727 0.61399865 0.54404098 4287096158
-1.1201583 0.62044495 0.54285592 4287096158
-1.1138817 0.62550688 0.54607445 4287096158
-1.1149526 0.63516289 0.54504126 4287096158
-1.123445 0.64710838 0.54558688 4287096158
-1.1160232 0.6448189 0.54400808 4287096158
-1.1243569 0.65519953 0.54496878 4287096158
-1.1255001 0.66480154 0.54526985 4287096158
-1.1266805 0.67511141 0.54479718 4287096158
-1.1363332 0.68772656 0.54658091 4287096158
-1.1278176 0.68478578 0.54484785 4287096158
-1.1370486 0.69435853 0.54553193 4287096158
-1.1382349 0.70471948 0.54505688 4287096158
-1.1394215 0.71508044 0.54458195 4287096158
-1.1407114 0.72596341 0.54482782 4287096158
-1.1399101 0.72088629 0.54133594 4287096158
-1.1418583 0.73541743 0.54548317 4287096158
-1.1516451 0.7482087 0.54918647 4287096158
-1.1429055 0.74474055 0.54471189 4287096158
-1.1522428 0.75511438 0.54560322 4287096158
-1.1435835 0.75066108 0.54444045 4287096158
-1.1534497 0.76535904 0.5457052 4287096158
-1.1545205 0.77486712 0.54496986 4287096158
-1.155713 0.7852791 0.54449242 4287096158
-1.1570052 0.79600334 0.54508966 4287096158
-1.1580219 0.80467325 0.54510051 4287096158
-1.1600102 0.81972045 0.54890227 4287096158
-1.1591412 0.81444776 0.54465234 4287096158
-1.1631341 0.82520443 0.54608452 4287096158
-1.1599706 0.82246476 0.54278761 4287096158
-1.1773247 0.83941627 0.54682326 4287096158
-1.1615233 0.83447945 0.54523116 4287096158
-1.1742666 0.84798598 0.5463447 4287096158
-1.1660097 0.8431828 0.54415369 4287096158
-1.1873173 0.8559745 0.54653913 4287096158
-1.1764299 0.8532058 0.54334223 4287096158
-1.1882362 0.86474293 0.54469466 4287096158
-1.1796151 0.86175823 0.54126602 4287096158
-1.1901853 0.87961054 0.54818839 4287096158
-1.1893824 0.87458897 0.54456449 4287096158
-1.1905106 0.88401884 0.54494971 4287096158
-1.1564054 0.51954579 0.55420291 4287096158
-1.1448988 0.51749206 0.55471295 4287096158
-1.1359704 0.51819801 0.55241716 4287096158
-1.1248462 0.51879895 0.55072105 4287096158
-1.0936387 0.51879132 0.55172539 4287096158
-1.0866351 0.51833612 0.55358475 4287096158
-1.0782309 0.51722783 0.55010349 4287096158
-1.056625 0.51952672 0.55540752 4287096158
-1.0494424 0.51999837 0.55239844 4287096158
-1.0352151 0.51743221 0.55567783 4287096158
-1.0259802 0.51622647 0.55539972 4287096158
-1.0149784 0.5173474 0.55474228 4287096158
-1.0079974 0.51810586 0.55457687 4287096158
-0.98082995 0.51822102 0.55543375 4287096158
-0.97461838 0.51680553 0.55553234 4287096158
-0.96450585 0.5168516 0.5549897 4287096158
-0.95522469 0.51505983 0.55508924 4287096158
-1.1484042 0.5202046 0.55403811 4287096158
-1.1255037 0.52196592 0.55556661 4287096158
-1.1175781 0.52277738 0.55637825 4287096158
-1.1065156 0.52246779 0.55411786 4287096158
-1.0943329 0.52283323 0.55545688 4287096158
-1.0873263 0.52236044 0.55729985 4287096158
-1.0767171 0.52058095 0.55766195 4287096158
-1.0650057 0.52247339 0.55484486 4287096158
-1.0569514 0.52237755 0.55527681 4287096158
-1.0474116 0.52038383 0.55709434 4287096158
-1.035723 0.52245128 0.55431527 4287096158
-1.015119 0.52001601 0.55182552 4287096158
-1.003123 0.52147418 0.55501342 4287096158
-0.98493749 0.52322972 0.55527264 4287096158
-1.1224734 0.56706685 0.55136794 4287096158
-1.1232948 0.57362527 0.55225915 4287096158
-1.1156535 0.57467711 0.55740756 4287096158
-1.1166676 0.58452058 0.55504543 4287096158
-1.1107715 0.59441763 0.55510992 4287096158
-1.1161959 0.60441387 0.55539376 4287096158
-1.12036 0.61586815 0.55534965 4287096158
-1.1198053 0.61200738 0.55362052 4287096158
-1.1214172 0.62532008 0.55449265 4287096158
-1.1229287 0.63637894 0.5581367 4287096158
-1.1155889 0.63691348 0.55234158 4287096158
-1.1238089 0.64513612 0.55565971 4287096158
-1.1162606 0.64277941 0.55207264 4287096158
-1.1248695 0.65455085 0.55493158 4287096158
-1.1261588 0.66520101 0.55562925 4287096158
-1.1272763 0.67509884 0.55490595 4287096158
-1.1284714 0.68524319 0.55500692 4287096158
-1.1376096 0.69515777 0.55344123 4287096158
-1.129367 0.69291335 0.55495179 4287096158
-1.1371015 0.70495105 0.55576187 4287096158
-1.1403234 0.71680796 0.55642164 4287096158
-1.1397476 0.71362549 0.55299187 4287096158
-1.1410953 0.72410929 0.55500335 4287096158
-1.1511934 0.73962992 0.55856305 4287096158
-1.1423812 0.73478103 0.55559766 4287096158
-1.1518747 0.74557966 0.55829024 4287096158
-1.143473 0.74508458 0.55363536 4287096158
-1.1527065 0.75438893 0.55489194 4287096158
-1.144151 0.75100517 0.55336392 4287096158
-1.1538987 0.76480097 0.55441457 4287096158
-1.1551909 0.77552527 0.55501181 4287096158
-1.1562383 0.78463948 0.5546568 4287096158
-1.1574527 0.79453254 0.55558527 4287096158
-1.1586874 0.80507678 0.5555625 4287096158
-1.1602201 0.81846356 0.55494875 4287096158
-1.1595846 0.81313485 0.55476528 4287096158
-1.1630764 0.82472831 0.55501556 4287096158
-1.1779962 0.83982342 0.55738139 4287096158
-1.1620935 0.83482528 0.55419856 4287096158
-1.1785645 0.84603512 0.5546791 4287096158
-1.16292 0.84178585 0.55437857 4287096158
-1.1879333 0.85672224 0.55547976 4287096158
-1.1793259 0.85273606 0.55427104 4287096158
-1.1888436 0.86476046 0.55494243 4287096158
-1.1903793 0.87738878 0.5558818 4287096158
-1.1896496 0.87179965 0.55461973 4287096158
-1.1911389 0.88379818 0.55602175 4287096158
-1.1567929 0.5197807 0.56029475 4287096158
-1.1444454 0.51777232 0.56014085 4287096158
-1.0946643 0.51941329 0.56785339 4287096158
-1.0873619 0.51859653 0.56536901 4287096158
-1.0758326 0.51815063 0.56743026 4287096158
-1.0358188 0.51832175 0.56413043 4287096158
-1.0261929 0.51782203 0.56514764 4287096158
-1.0041671 0.51912671 0.5673852 4287096158
-0.99578357 0.51966846 0.56667244 4287096158
-0.98338974 0.51759535 0.56585902 4287096158
-0.97505862 0.51581472 0.56495023 4287096158
-0.96356165 0.51746225 0.56510997 4287096158
-0.95590663 0.51547348 0.56581491 4287096158
-1.1452935 0.52283657 0.56444889 4287096158
-1.1334573 0.52391154 0.56683081 4287096158
-1.1261374 0.52235019 0.56553036 4287096158
-1.1149879 0.52346456 0.56580162 4287096158
-1.1041876 0.52324253 0.5649597 4287096158
-1.0948489 0.52291983 0.56402069 4287096158
-1.0876976 0.52258563 0.5631389 4287096158
-1.0746866 0.52093047 0.56243533 4287096158
-1.0655214 0.52171952 0.56507069 4287096158
-1.0536743 0.52205551 0.56563091 4287096158
-1.0455004 0.52084184 0.56366998 4287096158
-1.0363666 0.52266711 0.56478059 4287096158
-1.0066046 0.52150059 0.56409824 4287096158
-0.99583471 0.52224892 0.56241751 4287096158
-0.98731881 0.52112114 0.56391317 4287096158
-1.116128 0.5746907 0.56541264 4287096158
-1.1172975 0.58444571 0.56585485 4287096158
-1.1149901 0.59562933 0.56436288 4287096158
-1.1202209 0.60951829 0.56559485 4287096158
-1.1195009 0.60414755 0.564062 4287096158
-1.1209006 0.61566186 0.56490892 4287096158
-1.1219376 0.62468684 0.56455731 4287096158
-1.1231401 0.63448298 0.56547672 4287096158
-1.1243626 0.64492369 0.56545419 4287096158
-1.125543 0.65523362 0.5649814 4287096158
-1.1267235 0.66554356 0.56450874 4287096158
-1.1278068 0.674698 0.56468207 4287096158
-1.1290101 0.68474764 0.56511092 4287096158
-1.1364582 0.69446945 0.56567013 4287096158
-1.1297965 0.69276261 0.56251955 4287096158
-1.1400676 0.70996284 0.56567472 4287096158
-1.1367487 0.70450783 0.56584322 4287096158
-1.1406966 0.71530288 0.56572783 4287096158
-1.1417623 0.72476417 0.56499612 4287096158
-1.1513835 0.7397452 0.56155223 4287096158
-1.1429489 0.73512524 0.56452107 4287096158
-1.1525955 0.74878508 0.56413215 4287096158
-1.1442974 0.74613559 0.5655061 4287096158
-1.1532768 0.75473475 0.5638594 4287096158
-1.1455303 0.75459641 0.56958777 4287096158
-1.1544214 0.76511794 0.56263471 4287096158
-1.1467443 0.76635146 0.56681406 4287096158
-1.1557792 0.77535343 0.56530964 4287096158
-1.1475641 0.772358 0.56877351 4287096158
-1.1568732 0.78459859 0.5654847 4287096158
-1.1580654 0.79501057 0.56500721 4287096158
-1.1592577 0.80542254 0.5645299 4287096158
-1.1604785 0.81550592 0.56519049 4287096158
-1.1598437 0.81131464 0.56276256 4287096158
-1.1624228 0.82457155 0.56517595 4287096158
-1.1723408 0.83948898 0.56475157 4287096158
-1.1627589 0.83522874 0.56466055 4287096158
-1.1779127 0.84495032 0.56530964 4287096158
-1.1830162 0.85580289 0.56512547 4287096158
-1.1798508 0.85212308 0.56437236 4287096158
-1.1854198 0.86468107 0.56543648 4287096158
-1.1914293 0.87464017 0.56544948 4287096158
-1.1822011 0.87031078 0.56807142 4287096158
-1.1945591 0.88291091 0.5644626 4287096158
-1.126462 0.51977885 0.57612872 4287096158
-1.0951306 0.519696 0.57518435 4287096158
-1.0839537 0.51915479 0.57486165 4287096158
-1.0729697 0.51879162 0.57745004 4287096158
-1.0658647 0.5192613 0.57575935 4287096158
-1.0558678 0.51762438 0.57624137 4287096158
-1.0436561 0.51871121 0.57651341 4287096158
-1.0365663 0.51929849 0.57484394 4287096158
-1.0275272 0.51866126 0.572487 4287096158
-1.004171 0.51753968 0.57629144 4287096158
-0.99569416 0.51515269 0.57411855 4287096158
-0.98510963 0.51531315 0.57389313 4287096158
-0.97560108 0.51605976 0.57364625 4287096158
-0.96630245 0.51757139 0.57543707 4287096158
-0.95650357 0.51583534 0.5751999 4287096158
-1.1422077 0.52570975 0.57480466 4287096158
-1.1339654 0.52453744 0.57419151 4287096158
-1.1267077 0.52269608 0.57449776 4287096158
-1.1149714 0.52126056 0.57379878 4287096158
-1.1034483 0.52174467 0.57533503 4287096158
-1.0954647 0.52261436 0.57505047 4287096158
-1.0842124 0.52065694 0.57626247 4287096158
-1.0747313 0.52135265 0.57231122 4287096158
-1.0660096 0.52201563 0.57274872 4287096158
-1.0579003 0.52029997 0.57545966 4287096158
-1.043799 0.52142715 0.57354492 4287096158
-1.0367086 0.52200204 0.57188892 4287096158
-1.0245025 0.52059376 0.57720727 4287096158
-1.0167155 0.52098423 0.576931 4287096158
-1.0096383 0.52167249 0.5752753 4287096158
-1.1241758 0.56809926 0.57813829 4287096158
-1.1251296 0.57694179 0.57673961 4287096158
-1.1166384 0.57484359 0.57375014 4287096158
-1.1258706 0.58290058 0.57745969 4287096158
-1.117892 0.58535445 0.5741154 4287096158
-1.1179775 0.59563059 0.5750922 4287096158
-1.1259265 0.60593051 0.57539392 4287096158
-1.119717 0.60167456 0.57262594 4287096158
-1.1242917 0.61618012 0.57575852 4287096158
-1.1225662 0.62464625 0.575279 4287096158
-1.1237468 0.63495624 0.57480633 4287096158
-1.1249273 0.64526612 0.57433361 4287096158
-1.1261027 0.65498561 0.57494694 4287096158
-1.1273129 0.66511774 0.57532966 4287096158
-1.1283894 0.67452788 0.57487893 4287096158
-1.1380472 0.68748707 0.57607013 4287096158
-1.1294346 0.68329173 0.5751847 4287096158
-1.1389403 0.69550568 0.57527673 4287096158
-1.1402587 0.70663536 0.57551146 4287096158
-1.1397159 0.70258743 0.57435614 4287096158
-1.1411434 0.71474749 0.57439458 4287096158
-1.1424295 0.72541922 0.57498884 4287096158
-1.1515023 0.73151231 0.57989621 4287096158
-1.1434947 0.73492646 0.57415706 4287096158
-1.15294 0.74484158 0.57778788 4287096158
-1.1444831 0.74340171 0.57407409 4287096158
-1.1541322 0.75525349 0.57731056 4287096158
-1.1457195 0.75471115 0.5725624 4287096158
-1.1551541 0.7641781 0.57690132 4287096158
-1.1469059 0.76507205 0.57208729 4287096158
-1.1563148 0.77494866 0.5751825 4287096158
-1.1477532 0.77247274 0.57174802 4287096158
-1.1574435 0.78494442 0.5744521 4287096158
-1.1654779 0.79280287 0.57535321 4287096158
-1.1586888 0.79566538 0.57425994 4287096158
-1.1602604 0.80769169 0.57700247 4287096158
-1.1596625 0.80393797 0.57432985 4287096158
-1.1609397 0.8144958 0.57500273 4287096158
-1.162232 0.82522029 0.57559991 4287096158
-1.1706225 0.83669841 0.57534558 4287096158
-1.1630836 0.8326574 0.57525897 4287096158
-1.1801919 0.84860492 0.57712513 4287096158
-1.1777438 0.84430784 0.57456362 4287096158
-1.1808659 0.85553259 0.57479286 4287096158
-1.1903658 0.86708719 0.57609218 4287096158
-1.1840156 0.86308324 0.5741058 4287096158
-1.1932715 0.87559199 0.57426161 4287096158
-1.182393 0.87042713 0.57108802 4287096158
-1.2002819 0.88352984 0.57474101 4287096158
-1.1998411 0.8815701 0.57116932 4287096158
-1.142077 0.51911187 0.585684 4287096158
-1.133979 0.51977974 0.58386099 4287096158
-1.1268369 0.51816064 0.58568525 4287096158
-1.1186862 0.517389 0.58582675 4287096158
-1.0955968 0.5199787 0.58251518 4287096158
-1.084251 0.5179832 0.58221972 4287096158
-1.0732455 0.51895893 0.58178812 4287096158
-1.066414 0.51959437 0.58439708 4287096158
-1.0547072 0.51813036 0.5854702 4287096158
-1.0441501 0.51813442 0.58601975 4287096158
-1.035844 0.51793593 0.58523977 4287096158
-1.0147178 0.51885337 0.58717996 4287096158
-1.0042502 0.51618135 0.58459717 4287096158
-0.99608499 0.51305264 0.58490103 4287096158
-0.98506528 0.51470232 0.58630532 4287096158
-0.9741478 0.51452237 0.58624101 4287096158
-0.96328861 0.51750088 0.58431423 4287096158
-0.95704943 0.51594067 0.58423036 4287096158
-1.1506976 0.52299893 0.58731282 4287096158
-1.142424 0.52323347 0.58337963 4287096158
-1.1342454 0.52133143 0.58529353 4287096158
-1.1271275 0.52018231 0.58659071 4287096158
-1.1188471 0.52079225 0.58179706 4287096158
-1.1040106 0.52208567 0.58417606 4287096158
-1.0960211 0.52186549 0.58595371 4287096158
-1.085603 0.52092236 0.58561397 4287096158
-1.0669978 0.52394807 0.5856396 4287096158
-1.0585378 0.52068663 0.58548576 4287096158
-1.025442 0.52075225 0.58283466 4287096158
-1.0154557 0.5214653 0.5845288 4287096158
-1.0029529 0.52006233 0.5848127 4287096158
-1.1322368 0.56480515 0.5845449 4287096158
-1.124365 0.568214 0.5811128 4287096158
-1.1253318 0.57456005 0.58488506 4287096158
-1.1262622 0.58221972 0.58543694 4287096158
-1.1189892 0.5895834 0.58429921 4287096158
-1.1201894 0.5985347 0.58685392 4287096158
-1.1196349 0.59467399 0.58512479 4287096158
-1.1270988 0.60425919 0.58514023 4287096158
-1.1301863 0.61444229 0.58793259 4287096158
-1.1236904 0.61605436 0.58404022 4287096158
-1.1232022 0.62530613 0.58473694 4287096158
-1.1326339 0.63658702 0.5854274 4287096158
-1.1242371 0.63388288 0.58523327 4287096158
-1.125586 0.64566559 0.58469307 4287096158
-1.1266921 0.65455985 0.58576787 4287096158
-1.1363072 0.66636181 0.58853191 4287096158
-1.1277674 0.66425765 0.58473027 4287096158
-1.1371922 0.67447382 0.58741504 4287096158
-1.1289401 0.67511117 0.58304656 4287096158
-1.1375467 0.68578565 0.58462906 4287096158
-1.1297146 0.6819768 0.58253407 4287096158
-1.1400359 0.69892478 0.58703899 4287096158
-1.1393948 0.69486302 0.58424544 4287096158
-1.1406759 0.70507276 0.58567357 4287096158
-1.1399965 0.70165569 0.58095425 4287096158
-1.1418056 0.71514893 0.58480531 4287096158
-1.1430149 0.72524822 0.58523619 4287096158
-1.1521628 0.73357385 0.58698833 4287096158
-1.1439978 0.73383301 0.58484256 4287096158
-1.1534153 0.74512976 0.58526069 4287096158
-1.1446867 0.74031126 0.58365166 4287096158
-1.1546075 0.75554168 0.58478332 4287096158
-1.1556293 0.76446629 0.58437419 4287096158
-1.1569316 0.77522188 0.5850789 4287096158
-1.1581088 0.78534788 0.58491403 4287096158
-1.165682 0.792 0.5804022 4287096158
-1.1591537 0.79400957 0.58541524 4287096158
-1.1612238 0.80544269 0.58582169 4287096158
-1.159812 0.80022216 0.58423209 4287096158
-1.1674885 0.81497473 0.58531374 4287096158
-1.1702644 0.8281408 0.58626336 4287096158
-1.1638275 0.82590908 0.58416635 4287096158
-1.1709024 0.83464402 0.5841608 4287096158
-1.1805359 0.84774923 0.58464724 4287096158
-1.173 0.84271383 0.58414441 4287096158
-1.190177 0.85995436 0.5870474 4287096158
-1.1841903 0.85620672 0.58419794 4287096158
-1.1907023 0.86532605 0.58528274 4287096158
-1.2003658 0.87906736 0.58501494 4287096158
-1.1918768 0.87558317 0.58481246 4287096158
-1.183428 0.87245178 0.58459395 4287096158
-1.2008864 0.88361442 0.58480644 4287096158
-1.150565 0.51870751 0.59358287 4287096158
-1.1425567 0.51940274 0.59322554 4287096158
-1.127357 0.51755333 0.59569454 4287096158
-1.1191899 0.51686805 0.59538585 4287096158
-1.0668718 0.51987195 0.59159517 4287096158
-1.0560083 0.51843548 0.59493721 4287096158
-1.0446641 0.51827085 0.59445059 4287096158
-1.0332658 0.51763308 0.59398568 4287096158
-1.0235925 0.51868188 0.59547192 4287096158
-1.0136209 0.51901174 0.59485465 4287096158
-1.0038602 0.51635671 0.59424472 4287096158
-0.99463791 0.51556975 0.59524697 4287096158
-0.9842698 0.51439953 0.59468544 4287096158
-0.97365648 0.51427376 0.59549117 4287096158
-0.96379751 0.5161472 0.59561455 4287096158
-0.95762974 0.51527667 0.59537184 4287096158
-1.1511629 0.52348161 0.59423155 4287096158
-1.143456 0.52413869 0.59905231 4287096158
-1.134876 0.52101868 0.59658509 4287096158
-1.1276976 0.52052814 0.59555817 4287096158
-1.0965869 0.52213103 0.59500599 4287096158
-1.0854163 0.52138698 0.59519184 4287096158
-1.0744028 0.52233905 0.59467041 4287096158
-1.0673347 0.52193028 0.59534663 4287096158
-1.0591755 0.52107334 0.59551179 4287096158
-1.0453337 0.52235776 0.59767598 4287096158
-1.0333949 0.52064896 0.59815496 4287096158
-1.0178686 0.52168345 0.59506273 4287096158
-1.0037439 0.52054203 0.59725004 4287096158
-1.1332428 0.56818342 0.59487045 4287096158
-1.1261582 0.57618821 0.59564584 4287096158
-1.1270056 0.58358884 0.59530663 4287096158
-1.120446 0.59673226 0.59477282 4287096158
-1.1198914 0.59287155 0.59304368 4287096158
-1.1272831 0.60367447 0.59429699 4287096158
-1.1306592 0.61472911 0.5953688 4287096158
-1.1298671 0.6101166 0.59111065 4287096158
-1.1238586 0.62573457 0.59499621 4287096158
-1.1331227 0.63578141 0.59529746 4287096158
-1.1248262 0.63345712 0.59605408 4287096158
-1.1262449 0.64606518 0.59505248 4287096158
-1.1272568 0.65490222 0.59464735 4287096158
-1.1366661 0.66795665 0.59143853 4287096158
-1.1284844 0.66524071 0.59491462 4287096158
-1.1377743 0.67579103 0.59465504 4287096158
-1.1294688 0.67269045 0.59679681 4287096158
-1.138814 0.68441015 0.59515381 4287096158
-1.140368 0.69740444 0.59567547 4287096158
-1.1396328 0.69213796 0.59368205 4287096158
-1.1421443 0.70487458 0.59574974 4287096158
-1.1424043 0.71513629 0.59496409 4287096158
-1.1436052 0.72533077 0.59506553 4287096158
-1.153039 0.73798078 0.59307456 4287096158
-1.144671 0.73479217 0.59433377 4287096158
-1.1539218 0.74505943 0.59397501 4287096158
-1.145538 0.7408275 0.59703684 4287096158
-1.1552278 0.75549197 0.59538126 4287096158
-1.1562947 0.76486975 0.59483618 4287096158
-1.1575133 0.7749784 0.59540921 4287096158
-1.1587741 0.7857514 0.59537596 4287096158
-1.1602317 0.79770845 0.59632504 4287096158
-1.1596715 0.79380947 0.59457874 4287096158
-1.1632708 0.80440909 0.59463805 4287096158
-1.1774468 0.81527805 0.59678477 4287096158
-1.1690648 0.81413031 0.5937556 4287096158
-1.1722982 0.82597226 0.59464115 4287096158
-1.1698666 0.82233924 0.59104025 4287096158
-1.1802423 0.83839184 0.5982433 4287096158
-1.1741376 0.83435482 0.59397024 4287096158
-1.1816379 0.84521735 0.59590888 4287096158
-1.1721857 0.84181654 0.5916509 4287096158
-1.1902624 0.85626322 0.59582043 4287096158
-1.1845808 0.85172486 0.5940097 4287096158
-1.191204 0.86446416 0.59548336 4287096158
-1.2010437 0.87947851 0.59567565 4287096158
-1.1924825 0.87538898 0.59544957 4287096158
-1.2015643 0.88402551 0.59546715 4287096158
-1.14342 0.51992625 0.60680026 4287096158
-1.1259744 0.51812613 0.60530043 4287096158
-1.1171792 0.51799852 0.60463446 4287096158
-1.0674592 0.51756167 0.60612273 4287096158
-1.0594866 0.51860917 0.60566854 4287096158
-1.0452809 0.51969659 0.60206395 4287096158
-1.0337365 0.51771587 0.60477591 4287096158
-1.02406 0.51740921 0.60591042 4287096158
-1.0132438 0.5174765 0.60479707 4287096158
-1.0039099 0.51722974 0.60663104 4287096158
-0.99484211 0.51536876 0.60523057 4287096158
-0.98334044 0.5151971 0.60392958 4287096158
-0.97500819 0.51489931 0.60432673 4287096158
-0.96439677 0.51651061 0.60503805 4287096158
-0.95822662 0.51563865 0.60475683 4287096158
-1.1440116 0.52587247 0.60501671 4287096158
-1.1353532 0.52130806 0.60408998 4287096158
-1.1282679 0.52087396 0.60452557 4287096158
-1.0943078 0.52353108 0.60486382 4287096158
-1.0823665 0.52444363 0.6057905 4287096158
-1.0751417 0.52385843 0.60416144 4287096158
-1.0678598 0.52180433 0.60448611 4287096158
-1.0595398 0.5212943 0.60124099 4287096158
-1.0457851 0.52263147 0.6047734 4287096158
-1.0386206 0.52141672 0.60541737 4287096158
-1.1267258 0.5765323 0.60456938 4287096158
-1.1262658 0.58536685 0.60408777 4287096158
-1.1247364 0.59552211 0.60606164 4287096158
-1.1303295 0.60672408 0.60566825 4287096158
-1.1285546 0.60259956 0.60331929 4287096158
-1.1311311 0.61388832 0.60502374 4287096158
-1.1245142 0.62617028 0.60523045 4287096158
-1.1336744 0.63721794 0.60178709 4287096158
-1.1254604 0.63462484 0.60447216 4287096158
-1.1349001 0.64484799 0.60739672 4287096158
-1.1265939 0.64490622 0.60325956 4287096158
-1.1362311 0.65621489 0.60737222 4287096158
-1.1277274 0.65518761 0.60204691 4287096158
-1.1372541 0.66521424 0.60683548 4287096158
-1.1287878 0.6646024 0.60131872 4287096158
-1.1382852 0.67476588 0.60533744 4287096158
-1.1400043 0.68788671 0.60840327 4287096158
-1.1394101 0.68442732 0.60520965 4287096158
-1.1432506 0.69578755 0.60565376 4287096158
-1.1399648 0.69061756 0.60231858 4287096158
-1.1502603 0.70792079 0.60568184 4287096158
-1.1470214 0.70409518 0.60397261 4287096158
-1.1506386 0.71161056 0.60476404 4287096158
-1.1432047 0.71737462 0.60407156 4287096158
-1.1441466 0.72483277 0.60521954 4287096158
-1.1537616 0.73772693 0.60581249 4287096158
-1.1453108 0.7349298 0.60489202 4287096158
-1.1544807 0.74439162 0.60475832 4287096158
-1.1457272 0.74094218 0.60001129 4287096158
-1.1556993 0.75450033 0.60533136 4287096158
-1.15696 0.76527327 0.60529816 4287096158
-1.1579819 0.77419782 0.60488898 4287096158
-1.1591741 0.78460979 0.6044116 4287096158
-1.1612294 0.79575336 0.60513854 4287096158
-1.1598356 0.79193163 0.60108149 4287096158
-1.1769785 0.80638003 0.60651034 4287096158
-1.1666036 0.8043642 0.60406345 4287096158
-1.1779447 0.8152073 0.6053502 4287096158
-1.1692419 0.81222987 0.60052556 4287096158
-1.1790789 0.82511449 0.60489589 4287096158
-1.180445 0.8360703 0.60628241 4287096158
-1.1797466 0.8325038 0.6015352 4287096158
-1.1814094 0.84468704 0.60550952 4287096158
-1.1908355 0.85473913 0.60854286 4287096158
-1.1824913 0.8546555 0.60404515 4287096158
-1.1918517 0.86518097 0.60502762 4287096158
-1.2016249 0.8798309 0.6048134 4287096158
-1.1930606 0.87573969 0.60454345 4287096158
-1.2021456 0.88437796 0.6046049 4287096158
-1.1945951 0.89070672 0.6008206 4287096158
-1.1437477 0.51733124 0.61749607 4287096158
-1.1357369 0.51806563 0.61701953 4287096158
-1.1245909 0.51869828 0.61488801 4287096158
-1.1125884 0.51991415 0.61417902 4287096158
-1.0826646 0.51991653 0.61982071 4287096158
-1.0627216 0.51861006 0.6148985 4287096158
-1.056434 0.51917756 0.61262286 4287096158
-1.0341173 0.51789874 0.61584264 4287096158
-1.0245529 0.51704127 0.61498487 4287096158
-1.0141497 0.51623398 0.61462951 4287096158
-1.0040954 0.51461196 0.61496496 4287096158
-0.99498212 0.51408261 0.61540568 4287096158
-0.98393744 0.51505399 0.61431789 4287096158
-0.97527862 0.51510245 0.61561561 4287096158
-0.96479422 0.51461428 0.6155284 4287096158
-0.95865291 0.51589715 0.61146045 4287096158
-1.1523561 0.52260113 0.61617899 4287096158
-1.1441956 0.5231902 0.61344999 4287096158
-1.1357927 0.52087963 0.61237961 4287096158
-1.1287432 0.52116215 0.61199844 4287096158
-1.1128708 0.52008539 0.61861873 4287096158
-1.1056426 0.52034611 0.61525422 4287096158
-1.092581 0.5233627 0.61438239 4287096158
-1.0826262 0.52258348 0.61387837 4287096158
-1.0754335 0.52162498 0.61353481 4287096158
-1.0654547 0.52154666 0.61550313 4287096158
-1.0465072 0.52306938 0.61612916 4287096158
-1.0393178 0.52246267 0.61514348 4287096158
-1.1274041 0.576747 0.61562717 4287096158
-1.1193539 0.57746923 0.61450529 4287096158
-1.1273779 0.58410406 0.61576086 4287096158
-1.1238664 0.59505689 0.61502224 4287096158
-1.1308719 0.60659391 0.6151101 4287096158
-1.1224836 0.60403758 0.61476976 4287096158
-1.1317194 0.6139946 0.61477071 4287096158
-1.132756 0.62151003 0.61740601 4287096158
-1.1250976 0.62686658 0.61372304 4287096158
-1.1261193 0.63502437 0.61483163 4287096158
-1.135373 0.64513481 0.61483294 4287096158
-1.1267937 0.64091575 0.61456144 4287096158
-1.1365823 0.6552341 0.61526394 4287096158
-1.137671 0.66443396 0.61543804 4287096158
-1.1388572 0.67479491 0.614963 4287096158
-1.1402848 0.68695498 0.61500138 4287096158
-1.139742 0.68290693 0.61384618 4287096158
-1.1435355 0.69533885 0.61436784 4287096158
-1.1506313 0.70606959 0.61563468 4287096158
-1.1499217 0.70148677 0.61271423 4287096158
-1.1516428 0.71437263 0.61628234 4287096158
-1.1435829 0.71760416 0.61002052 4287096158
-1.1529516 0.72408634 0.61916417 4287096158
-1.1447732 0.72580302 0.61390144 4287096158
-1.1540749 0.73528707 0.61595571 4287096158
-1.1455615 0.73257756 0.61380363 4287096158
-1.1551459 0.74479508 0.61522031 4287096158
-1.1563382 0.75520706 0.61474293 4287096158
-1.1575303 0.7656191 0.61426556 4287096158
-1.1657493 0.77396977 0.61731601 4287096158
-1.1584493 0.7740857 0.61302179 4287096158
-1.1625814 0.78781605 0.6158917 4287096158
-1.1595629 0.78290784 0.61437124 4287096158
-1.1648846 0.79591441 0.61490643 4287096158
-1.177572 0.80883521 0.61168617 4287096158
-1.1692688 0.80501777 0.615291 4287096158
-1.1735666 0.81426352 0.61506045 4287096158
-1.1800743 0.82990879 0.61223096 4287096158
-1.1737676 0.82456821 0.61540234 4287096158
-1.1808941 0.83568299 0.6146524 4287096158
-1.1727821 0.83383787 0.61757851 4287096158
-1.1903694 0.84659612 0.61681139 4287096158
-1.1818064 0.84399658 0.61359972 4287096158
-1.191221 0.85497296 0.61460543 4287096158
-1.1824806 0.85092413 0.61126745 4287096158
-1.1923072 0.86461496 0.61385971 4287096158
-1.2020526 0.87726939 0.617136 4287096158
-1.193473 0.87411827 0.61473978 4287096158
-1.2025918 0.8832382 0.61442137 4287096158
-0.97173458 0.5082556 0.62611639 4287096158
-1.152506 0.51894885 0.62596244 4287096158
-1.1441393 0.51701003 0.62476349 4287096158
-1.1361189 0.5182972 0.62302339 4287096158
-1.1241926 0.51847363 0.62566471 4287096158
-1.0933386 0.51903033 0.62584394 4287096158
-1.0638988 0.51893193 0.62508404 4287096158
-1.0535607 0.51985478 0.62239695 4287096158
-1.0351412 0.51798874 0.625027 4287096158
-1.0249839 0.51563525 0.62506866 4287096158
-1.014829 0.51495606 0.62524927 4287096158
-1.0046959 0.51599997 0.62237692 4287096158
-0.99439085 0.51587915 0.62415832 4287096158
-0.98438084 0.51311284 0.62567657 4287096158
-0.97507232 0.51157719 0.62480813 4287096158
-0.96496391 0.51311433 0.62137687 4287096158
-1.1610545 0.52236503 0.62730491 4287096158
-1.1529702 0.52337444 0.62503654 4287096158
-1.1445611 0.52131665 0.62335718 4287096158
-1.1297888 0.52179623 0.62843865 4287096158
-1.113059 0.52019954 0.62157857 4287096158
-1.0965506 0.52274883 0.62304169 4287096158
-1.0830342 0.52014065 0.62563044 4287096158
-1.067952 0.5225082 0.62416255 4287096158
-1.0539235 0.52007473 0.62810051 4287096158
-1.0468158 0.52062726 0.62619501 4287096158
-1.0397115 0.52120578 0.6243012 4287096158
-0.992329 0.52009726 0.62685186 4287096158
-1.1419741 0.56633055 0.62683576 4287096158
-1.1352389 0.56939387 0.62625647 4287096158
-1.1355795 0.5723688 0.62612003 4287096158
-1.1282195 0.57881552 0.62532288 4287096158
-1.126572 0.58485734 0.62447482 4287096158
-1.1220365 0.59554291 0.62405443 4287096158
-1.1315176 0.60718232 0.6248737 4287096158
-1.1230029 0.60376507 0.62410104 4287096158
-1.1323814 0.61439615 0.62518144 4287096158
-1.1335275 0.62399095 0.62554371 4287096158
-1.1349512 0.63563102 0.62654912 4287096158
-1.1265899 0.63530976 0.62223119 4287096158
-1.1359718 0.64512217 0.62499177 4287096158
-1.1371726 0.65531671 0.62509322 4287096158
-1.1468599 0.66779464 0.62773383 4287096158
-1.1382384 0.66477805 0.62436146 4287096158
-1.147541 0.67374444 0.62746108 4287096158
-1.1393301 0.67508167 0.62239921 4287096158
