# .PCD v0.7 - Point Cloud Data file format
VERSION 0.7
FIELDS x y z rgba
SIZE 4 4 4 4
TYPE F F F U
COUNT 1 1 1 1
WIDTH 1095
HEIGHT 1
VIEWPOINT 0 0 0 1 0 0 0
POINTS 1095
DATA ascii
-1.085874 0.68575478 0.29520631 4288861816
-1.0907826 0.6954776 0.29871035 4288861816
-1.0877258 0.69468784 0.29374361 4288861816
-1.0923032 0.70495254 0.29637763 4288861816
-1.0888318 0.70429003 0.29360411 4288861816
-1.0934192 0.71546459 0.2939471 4288861816
-1.0892215 0.71261567 0.29736391 4288861816
-1.0936676 0.72445858 0.29544309 4288861816
-1.095118 0.73536468 0.29526412 4288861816
-1.0973959 0.74527371 0.29449049 4288861816
-1.1003494 0.75726748 0.29334977 4288861816
-1.0971818 0.75458974 0.2954666 4288861816
-1.1024445 0.76597154 0.29439956 4288861816
-1.0983135 0.76331627 0.29703146 4288861816
-1.1050544 0.77497375 0.29423556 4288861816
-1.1049616 0.78497696 0.29519263 4288861816
-1.1107672 0.79566365 0.29139337 4288861816
-1.1065638 0.79480499 0.29621881 4288861816
-1.1111941 0.80482095 0.29515254 4288861816
-1.1085771 0.80553257 0.29394618 4288861816
-1.1129534 0.81532449 0.29400498 4288861816
-1.1088969 0.8131035 0.29632053 4288861816
-1.1155162 0.8252809 0.29456165 4288861816
-1.1203636 0.83639127 0.29722404 4288861816
-1.1171275 0.834508 0.29531091 4288861816
-1.1226741 0.84487355 0.29615352 4288861816
-1.118668 0.84234017 0.29318467 4288861816
-1.1250889 0.85490054 0.29523507 4288861816
-1.1308216 0.86591375 0.29479799 4288861816
-1.1275594 0.86386591 0.29536831 4288861816
-1.1133727 0.5165391 0.30570033 4288861816
-1.1059402 0.5142343 0.30333501 4288861816
-1.094622 0.51567852 0.30761635 4288861816
-1.0850843 0.51652503 0.30411521 4288861816
-1.0752432 0.51688433 0.30508268 4288861816
-1.0733038 0.56531209 0.30443206 4288861816
-1.0690181 0.56640476 0.30560908 4288861816
-1.0727504 0.57534969 0.30535921 4288861816
-1.0697895 0.57161939 0.30420998 4288861816
-1.0746998 0.58409899 0.30515698 4288861816
-1.0762658 0.59405607 0.30458868 4288861816
-1.072656 0.60520887 0.3048031 4288861816
-1.0697646 0.60702878 0.30846673 4288861816
-1.0722778 0.61601388 0.30535063 4288861816
-1.0694848 0.61414891 0.30420819 4288861816
-1.0730639 0.62462306 0.3049731 4288861816
-1.0805914 0.63658637 0.30143836 4288861816
-1.0767673 0.63489825 0.30558643 4288861816
-1.0808048 0.64532048 0.30417302 4288861816
-1.0780936 0.64546734 0.30522424 4288861816
-1.0811707 0.65448916 0.30345741 4288861816
-1.0784334 0.65456492 0.30607215 4288861816
-1.0814562 0.66535622 0.30626428 4288861816
-1.0787051 0.66423571 0.30442676 4288861816
-1.0907629 0.6770038 0.30844575 4288861816
-1.08755 0.67440605 0.30416086 4288861816
-1.0918839 0.68557447 0.30588788 4288861816
-1.0886792 0.68374312 0.30121142 4288861816
-1.0921046 0.69579083 0.30461162 4288861816
-1.0894241 0.69530159 0.30687746 4288861816
-1.0936718 0.70517594 0.30495048 4288861816
-1.0952978 0.71490717 0.30489221 4288861816
-1.0957549 0.72493345 0.30511147 4288861816
-1.0953403 0.73525542 0.30498213 4288861816
-1.1009475 0.74435085 0.30472359 4288861816
-1.097813 0.74502569 0.30582333 4288861816
-1.1016183 0.75592619 0.30676103 4288861816
-1.0985038 0.75417882 0.30219951 4288861816
-1.103626 0.76582652 0.30444601 4288861816
-1.1038655 0.77554888 0.30499369 4288861816
-1.1028174 0.78590626 0.3049801 4288861816
-1.0992708 0.78254813 0.30948052 4288861816
-1.1055968 0.79508406 0.30517903 4288861816
-1.1111094 0.80649602 0.307201 4288861816
-1.1080478 0.80401498 0.30312082 4288861816
-1.1123557 0.81580704 0.30508783 4288861816
-1.1096165 0.81229687 0.30150369 4288861816
-1.1122577 0.82520878 0.30508387 4288861816
-1.1215622 0.83397889 0.30061105 4288861816
-1.1152227 0.83565742 0.30483896 4288861816
-1.1215545 0.84821051 0.30353779 4288861816
-1.1170186 0.84417737 0.30653799 4288861816
-1.1240042 0.85571456 0.30446574 4288861816
-1.119369 0.8514905 0.3084206 4288861816
-1.1315906 0.86460733 0.30207676 4288861816
-1.1272813 0.86357194 0.30637327 4288861816
-1.1053766 0.51758695 0.3110359 4288861816
-1.0924996 0.51818824 0.31542501 4288861816
-1.085238 0.51839775 0.31211808 4288861816
-1.0751909 0.51908576 0.31534016 4288861816
-1.095065 0.52054375 0.31608096 4288861816
-1.0803139 0.52130562 0.3179563 4288861816
-1.0791106 0.52136767 0.315804 4288861816
-1.0749077 0.56640965 0.31407759 4288861816
-1.0762364 0.57431144 0.31480286 4288861816
-1.0769185 0.58377498 0.3151693 4288861816
-1.0743172 0.59508967 0.31465864 4288861816
-1.0733923 0.6057393 0.31498766 4288861816
-1.073495 0.61480755 0.31466159 4288861816
-1.0807436 0.62620103 0.31766561 4288861816
-1.0762286 0.62410998 0.31467503 4288861816
-1.0811141 0.63486671 0.31373492 4288861816
-1.0782872 0.63468343 0.31583086 4288861816
-1.0812118 0.64651072 0.31821606 4288861816
-1.0783999 0.64513886 0.31398878 4288861816
-1.0822356 0.65367156 0.31623247 4288861816
-1.0780845 0.65598559 0.31351167 4288861816
-1.085825 0.66605395 0.31495953 4288861816
-1.0774955 0.66171879 0.3140941 4288861816
-1.0872011 0.67542732 0.31478113 4288861816
-1.0922265 0.68510103 0.31459174 4288861816
-1.0876268 0.68288267 0.31626096 4288861816
-1.0928806 0.69513392 0.31448194 4288861816
-1.0898659 0.69222653 0.31974906 4288861816
-1.0965637 0.70530081 0.31478062 4288861816
-1.1003613 0.71440119 0.31604144 4288861816
-1.0976744 0.7146889 0.31442738 4288861816
-1.1010714 0.72065675 0.31398368 4288861816
-1.0964828 0.72538936 0.31509671 4288861816
-1.0969615 0.73518831 0.31441066 4288861816
-1.1014544 0.74373406 0.31292048 4288861816
-1.0976636 0.74467081 0.31621489 4288861816
-1.1025155 0.75479496 0.31377059 4288861816
-1.0979575 0.75449121 0.31677219 4288861816
-1.1027775 0.76550394 0.31420454 4288861816
-1.0986258 0.76322079 0.31856614 4288861816
-1.1021479 0.77440226 0.3153677 4288861816
-1.0993254 0.77788013 0.31204545 4288861816
-1.1033107 0.78467256 0.31547308 4288861816
-1.1059324 0.79473001 0.31477189 4288861816
-1.1112618 0.80613095 0.31812972 4288861816
-1.1082526 0.80482817 0.31351838 4288861816
-1.112424 0.81476003 0.31561297 4288861816
-1.1092731 0.81274527 0.31112859 4288861816
-1.114659 0.82507432 0.31459337 4288861816
-1.1156287 0.83515447 0.31487903 4288861816
-1.1215385 0.84528804 0.31552222 4288861816
-1.1182861 0.84405202 0.31463373 4288861816
-1.1232866 0.85477698 0.31453452 4288861816
-1.119629 0.8513751 0.31940654 4288861816
-1.1304945 0.8684116 0.31906807 4288861816
-1.1266345 0.86523908 0.31456259 4288861816
-1.0953443 0.51792347 0.32737899 4288861816
-1.0828733 0.51872408 0.32644647 4288861816
-1.0741274 0.51828146 0.32540581 4288861816
-1.1045175 0.52015752 0.32770175 4288861816
-1.0960395 0.52036208 0.32487178 4288861816
-1.0843452 0.52102625 0.32206476 4288861816
-1.0778129 0.52128851 0.32402688 4288861816
-1.0713305 0.56811428 0.32133859 4288861816
-1.0653324 0.56920391 0.32764211 4288861816
-1.0731635 0.57534462 0.32507971 4288861816
-1.0672486 0.57200634 0.32674405 4288861816
-1.0747766 0.58438903 0.32519782 4288861816
-1.0756356 0.59479475 0.32482293 4288861816
-1.0746722 0.60633606 0.32495373 4288861816
-1.0760169 0.61466998 0.32535449 4288861816
-1.080863 0.62790489 0.32744178 4288861816
-1.0777915 0.62406504 0.32406223 4288861816
-1.0823617 0.63620418 0.32569239 4288861816
-1.0793246 0.63388312 0.32157025 4288861816
-1.0844078 0.64462095 0.32484508 4288861816
-1.0831076 0.65604037 0.32533005 4288861816
-1.0845269 0.6650781 0.32470277 4288861816
-1.0911778 0.67480379 0.3237977 4288861816
-1.086818 0.6738975 0.3259773 4288861816
-1.0909938 0.68335372 0.3264282 4288861816
-1.0879914 0.68527645 0.32443267 4288861816
-1.091431 0.69661313 0.32367471 4288861816
-1.0881171 0.69524437 0.32553962 4288861816
-1.0938727 0.70485783 0.3238644 4288861816
-1.0890144 0.7044189 0.32645485 4288861816
-1.0943775 0.71497649 0.32482257 4288861816
-1.0896311 0.71306682 0.32924756 4288861816
-1.09541 0.72504431 0.32495111 4288861816
-1.0952086 0.73522991 0.3249718 4288861816
-1.1005381 0.74866003 0.32963532 4288861816
-1.0975963 0.74520701 0.32504806 4288861816
-1.1011478 0.75446016 0.32764164 4288861816
-1.0981935 0.75481588 0.32374498 4288861816
-1.1032003 0.7663604 0.32496342 4288861816
-1.0982889 0.7621569 0.32551339 4288861816
-1.1053038 0.7751264 0.32458326 4288861816
-1.1064136 0.78471363 0.32522655 4288861816
-1.1108525 0.79769635 0.32186934 4288861816
-1.1079197 0.7943626 0.32544476 4288861816
-1.1128032 0.80653989 0.32511407 4288861816
-1.1088263 0.80236149 0.3263 4288861816
-1.1145941 0.81507623 0.3250252 4288861816
-1.1150736 0.82458055 0.3244513 4288861816
-1.1207983 0.83795404 0.32856408 4288861816
-1.1175658 0.83466291 0.32461089 4288861816
-1.1217643 0.84603691 0.32599071 4288861816
-1.118755 0.84367484 0.3219395 4288861816
-1.1239293 0.85463893 0.32525486 4288861816
-1.1309874 0.86937863 0.32989189 4288861816
-1.126541 0.86465752 0.32455638 4288861816
-1.1025225 0.51811045 0.33573723 4288861816
-1.094546 0.51794463 0.33583054 4288861816
-1.0854 0.51855963 0.33360064 4288861816
-1.0759951 0.5188399 0.33433148 4288861816
-1.1117661 0.52467215 0.33808181 4288861816
-1.1050531 0.52202696 0.3346343 4288861816
-1.080071 0.52104408 0.33860058 4288861816
-1.073236 0.56789994 0.33527535 4288861816
-1.0749853 0.57459694 0.33481458 4288861816
-1.0757786 0.58430195 0.33538926 4288861816
-1.0751902 0.59535974 0.33466169 4288861816
-1.0762138 0.60488796 0.33491445 4288861816
-1.0811493 0.61597425 0.33425602 4288861816
-1.0777682 0.61457998 0.33576658 4288861816
-1.0807855 0.62336296 0.33568853 4288861816
-1.0780615 0.62584311 0.33406448 4288861816
-1.0808516 0.63745224 0.33283913 4288861816
-1.076571 0.63451314 0.33535826 4288861816
-1.0829343 0.64643669 0.33474678 4288861816
-1.0783026 0.64323431 0.3357586 4288861816
-1.0835075 0.65524077 0.33508769 4288861816
-1.0861452 0.66430098 0.33494189 4288861816
-1.0837311 0.67546922 0.33525029 4288861816
-1.086676 0.68551612 0.33512402 4288861816
-1.0903625 0.69469893 0.33501655 4288861816
-1.0876619 0.69442964 0.33563545 4288861816
-1.091486 0.70534527 0.33659807 4288861816
-1.0884066 0.70356625 0.33211538 4288861816
-1.0928392 0.71541071 0.33482182 4288861816
-1.1007566 0.72998798 0.33989516 4288861816
-1.095306 0.72413242 0.33504373 4288861816
-1.1013219 0.73625684 0.33757573 4288861816
-1.0981801 0.73395282 0.33325988 4288861816
-1.1017549 0.74393213 0.33427888 4288861816
-1.0989821 0.74542481 0.33488569 4288861816
-1.1019852 0.75588125 0.33621541 4288861816
-1.0990745 0.75414562 0.33462307 4288861816
-1.1031474 0.76507515 0.33540109 4288861816
-1.09955 0.7629509 0.33080375 4288861816
-1.1054474 0.77487224 0.33532748 4288861816
-1.1063064 0.78440535 0.33470762 4288861816
-1.1106279 0.79890442 0.33548862 4288861816
-1.1071095 0.79466361 0.33528042 4288861816
-1.111702 0.80551165 0.33528173 4288861816
-1.1089549 0.80451798 0.33375967 4288861816
-1.1122969 0.81385708 0.33470711 4288861816
-1.1091185 0.81806749 0.33734888 4288861816
-1.1142675 0.82556462 0.33493626 4288861816
-1.1096392 0.8226555 0.33583966 4288861816
-1.123004 0.8371101 0.33482763 4288861816
-1.1183748 0.83318073 0.3351931 4288861816
-1.1255891 0.84514928 0.33479249 4288861816
-1.1315978 0.8556636 0.33822039 4288861816
-1.1283791 0.85409278 0.33338189 4288861816
-1.1327711 0.86525095 0.33521661 4288861816
-1.1294841 0.86190432 0.33119681 4288861816
-1.1047691 0.51954651 0.3441686 4288861816
-1.0962492 0.51792049 0.34153494 4288861816
-1.0833393 0.51851797 0.34220466 4288861816
-1.1123514 0.52375406 0.3430874 4288861816
-1.1071669 0.52278966 0.34536818 4288861816
-1.092976 0.52104676 0.34667662 4288861816
-1.0842503 0.52083164 0.34607455 4288861816
-1.0744284 0.52144516 0.34645295 4288861816
-1.081172 0.56166309 0.34208536 4288861816
-1.0758119 0.5668757 0.34500599 4288861816
-1.0757215 0.5744437 0.34526357 4288861816
-1.0807447 0.58779812 0.3484447 4288861816
-1.0774622 0.58445597 0.34443039 4288861816
-1.0764314 0.59610659 0.34467724 4288861816
-1.0803171 0.60809743 0.34742272 4288861816
-1.0775508 0.60447907 0.3444635 4288861816
-1.080892 0.61612701 0.34418872 4288861816
-1.0776324 0.61430126 0.34499523 4288861816
-1.0808345 0.62580693 0.34594595 4288861816
-1.0780096 0.62539506 0.34554923 4288861816
-1.0808406 0.63113534 0.34662783 4288861816
-1.0778385 0.635553 0.34463948 4288861816
-1.0807717 0.64524406 0.34502584 4288861816
-1.0780696 0.64407331 0.34537131 4288861816
-1.0826961 0.65590382 0.34595528 4288861816
-1.0791492 0.65354246 0.34226504 4288861816
-1.0846386 0.6641407 0.34516627 4288861816
-1.0906217 0.67802668 0.34952399 4288861816
-1.0870242 0.67471319 0.34493986 4288861816
-1.0928246 0.68512243 0.34616259 4288861816
-1.0882292 0.68398142 0.3421607 4288861816
-1.0924714 0.69452327 0.34528899 4288861816
-1.0890114 0.69959468 0.34574789 4288861816
-1.0922027 0.70482218 0.34511554 4288861816
-1.0895357 0.70421481 0.34422809 4288861816
-1.0929892 0.71442479 0.34491116 4288861816
-1.0894542 0.71118987 0.34039548 4288861816
-1.1002029 0.7276839 0.34013835 4288861816
-1.0953341 0.72509998 0.3452161 4288861816
-1.100832 0.73577595 0.34743378 4288861816
-1.098377 0.73466319 0.34369785 4288861816
-1.1016611 0.74512661 0.34499568 4288861816
-1.0995363 0.74391311 0.34587234 4288861816
-1.1044718 0.75456512 0.3447057 4288861816
-1.1069478 0.76522887 0.34514162 4288861816
-1.1046777 0.77504951 0.34468889 4288861816
-1.1103994 0.78784251 0.34512308 4288861816
-1.1062205 0.78480661 0.34542778 4288861816
-1.1112591 0.79445791 0.34313869 4288861816
-1.1086067 0.79400927 0.34568205 4288861816
-1.1109444 0.80656451 0.34664857 4288861816
-1.1083664 0.80380023 0.34356943 4288861816
-1.1121891 0.81583267 0.34393939 4288861816
-1.1091036 0.81349874 0.34671673 4288861816
-1.1202974 0.82902795 0.34077609 4288861816
-1.1152703 0.82450199 0.34530509 4288861816
-1.1217277 0.83612096 0.34373093 4288861816
-1.1178219 0.83350271 0.34612623 4288861816
-1.1306534 0.84848332 0.34035438 4288861816
-1.1251076 0.84508401 0.34494406 4288861816
-1.1328928 0.85690463 0.34223768 4288861816
-1.1269898 0.85458654 0.34652346 4288861816
-1.1408269 0.86887145 0.34749165 4288861816
-1.1355737 0.86517334 0.34479979 4288861816
-1.0729734 0.51925784 0.35530421 4288861816
-1.1135108 0.52192736 0.3530736 4288861816
-1.1022812 0.52398509 0.35272065 4288861816
-1.0957085 0.52260613 0.3561599 4288861816
-1.0855933 0.52069658 0.35449275 4288861816
-1.0752343 0.52152979 0.35584235 4288861816
-1.0723085 0.56737483 0.35485324 4288861816
-1.0744655 0.57537639 0.35442117 4288861816
-1.0695825 0.57200491 0.35806954 4288861816
-1.081234 0.58364362 0.35150343 4288861816
-1.0771823 0.58472055 0.35557285 4288861816
-1.0810769 0.59317118 0.356655 4288861816
-1.0780987 0.59515232 0.35484713 4288861816
-1.0803722 0.60339344 0.35000747 4288861816
-1.0760595 0.60497636 0.35511932 4288861816
-1.0766624 0.6150853 0.35531619 4288861816
-1.0808593 0.62535083 0.35390657 4288861816
-1.0779115 0.62448758 0.3554512 4288861816
-1.0812867 0.63568783 0.35547289 4288861816
-1.0782129 0.63420421 0.35433221 4288861816
-1.0823935 0.64563388 0.354366 4288861816
-1.0792458 0.64433122 0.35777363 4288861816
-1.0844433 0.6546849 0.35491121 4288861816
-1.0827043 0.66605961 0.35516533 4288861816
-1.0795511 0.66434574 0.35609996 4288861816
-1.09254 0.67676151 0.35357177 4288861816
-1.0863221 0.67396933 0.35609835 4288861816
-1.0925529 0.68467665 0.3535957 4288861816
-1.0889978 0.68740189 0.35719639 4288861816
-1.0926895 0.69513947 0.35479215 4288861816
-1.0890349 0.69165397 0.35836238 4288861816
-1.0959827 0.70530248 0.35500801 4288861816
-1.100397 0.71527314 0.35751075 4288861816
-1.0976987 0.71426266 0.35422292 4288861816
-1.0958503 0.72523665 0.35493219 4288861816
-1.1011122 0.73617345 0.35190383 4288861816
-1.0973037 0.73484457 0.35531834 4288861816
-1.1017762 0.74612814 0.35199544 4288861816
-1.0979128 0.7448073 0.35635564 4288861816
-1.1031656 0.75501543 0.35532483 4288861816
-1.099556 0.75164497 0.35563394 4288861816
-1.1066877 0.76430923 0.35451999 4288861816
-1.1045191 0.77530473 0.35535216 4288861816
-1.1045057 0.78509831 0.35463506 4288861816
-1.1112427 0.79643607 0.35369343 4288861816
-1.1079674 0.79428929 0.35675338 4288861816
-1.1111112 0.80521905 0.35681233 4288861816
-1.1083044 0.8055225 0.35301635 4288861816
-1.1127378 0.81496108 0.35583368 4288861816
-1.1096549 0.81234825 0.35178542 4288861816
-1.1202049 0.82787955 0.35168734 4288861816
-1.1153235 0.82412171 0.35506785 4288861816
-1.1212436 0.83545959 0.35604978 4288861816
-1.1180431 0.83463508 0.35477346 4288861816
-1.1230836 0.84499866 0.35503104 4288861816
-1.1193378 0.84057963 0.35391042 4288861816
-1.1258301 0.85520726 0.35511759 4288861816
-1.1357195 0.86604387 0.35476053 4288861816
-1.1274549 0.86168534 0.35555032 4288861816
-1.13636 0.87088805 0.35739735 4288861816
-1.0734003 0.51918602 0.36551443 4288861816
-1.1027855 0.52396584 0.36585072 4288861816
-1.095929 0.52097791 0.36447471 4288861816
-1.0848867 0.5208956 0.36480591 4288861816
-1.0760711 0.52143806 0.36484131 4288861816
-1.0716555 0.56514162 0.36325753 4288861816
-1.0739012 0.57585984 0.3646847 4288861816
-1.0685347 0.57225394 0.36655942 4288861816
-1.0801948 0.58667833 0.36900216 4288861816
-1.0769808 0.58552963 0.36452988 4288861816
-1.0805628 0.59508908 0.36520213 4288861816
-1.0777907 0.59414965 0.36462215 4288861816
-1.0805532 0.60798424 0.36883229 4288861816
-1.0774708 0.60535693 0.36479232 4288861816
-1.0816623 0.61582619 0.36663875 4288861816
-1.0786589 0.61478812 0.36189738 4288861816
-1.081197 0.62524927 0.36382601 4288861816
-1.0783057 0.62579077 0.36592326 4288861816
-1.0811667 0.63464737 0.36627862 4288861816
-1.078804 0.63532907 0.36414903 4288861816
-1.0824229 0.64576459 0.36454409 4288861816
-1.0794656 0.64273787 0.36570245 4288861816
-1.0839566 0.65488374 0.36543849 4288861816
-1.0842928 0.66512239 0.36473879 4288861816
-1.0915591 0.67746782 0.36472881 4288861816
-1.0877557 0.6732493 0.36528444 4288861816
-1.0911573 0.68408692 0.36442822 4288861816
-1.0883701 0.68613577 0.36459574 4288861816
-1.0922045 0.69524115 0.36466491 4288861816
-1.0886123 0.69279271 0.36748284 4288861816
-1.1004785 0.70829809 0.36134338 4288861816
-1.0947343 0.70446736 0.36490124 4288861816
-1.1007112 0.7153306 0.36361626 4288861816
-1.0975126 0.71537369 0.36532983 4288861816
-1.1002226 0.72119087 0.36244735 4288861816
-1.0952559 0.72538573 0.36521813 4288861816
-1.0941828 0.73520172 0.36533308 4288861816
-1.1008824 0.7473312 0.36286855 4288861816
-1.0975004 0.74437129 0.36532995 4288861816
-1.1016688 0.75644815 0.36728245 4288861816
-1.0988156 0.75458413 0.36324224 4288861816
-1.1031152 0.76487786 0.36537176 4288861816
-1.0996685 0.76114815 0.36127326 4288861816
-1.1057779 0.77482378 0.36480141 4288861816
-1.1107962 0.78815585 0.36659023 4288861816
-1.1059433 0.78548282 0.36496508 4288861816
-1.11159 0.79554069 0.36408302 4288861816
-1.1083643 0.79362243 0.36539692 4288861816
-1.1124281 0.80499983 0.36513567 4288861816
-1.109702 0.80403727 0.36673069 4288861816
-1.1125891 0.81523043 0.36534578 4288861816
-1.1095219 0.81129634 0.3625747 4288861816
-1.1200718 0.82675123 0.36251661 4288861816
-1.115567 0.82471913 0.3650772 4288861816
-1.1222435 0.83672059 0.36455849 4288861816
-1.1179576 0.83318377 0.36585781 4288861816
-1.1301084 0.84921831 0.36831287 4288861816
-1.1263627 0.84466952 0.36455691 4288861816
-1.1300007 0.85841757 0.36325809 4288861816
-1.1269782 0.85581565 0.36546746 4288861816
-1.1338801 0.86576676 0.36504167 4288861816
-1.1283417 0.86188364 0.36478311 4288861816
-1.1363381 0.87163341 0.36481485 4288861816
-1.120069 0.51654434 0.37793902 4288861816
-1.1115996 0.51969326 0.373916 4288861816
-1.1019809 0.51997888 0.37252301 4288861816
-1.0734711 0.5191552 0.37193549 4288861816
-1.1115713 0.52211004 0.37258804 4288861816
-1.102138 0.52230412 0.37680349 4288861816
-1.0957294 0.52140683 0.37410152 4288861816
-1.0842808 0.52192724 0.37511796 4288861816
-1.0752344 0.52201039 0.37484002 4288861816
-1.0721296 0.56751454 0.37539807 4288861816
-1.0807763 0.57435495 0.37654361 4288861816
-1.0751294 0.57390976 0.37468308 4288861816
-1.0803699 0.58641714 0.37991568 4288861816
-1.0769682 0.5852204 0.37455669 4288861816
-1.0807365 0.59479564 0.37613019 4288861816
-1.0779554 0.59429657 0.374486 4288861816
-1.0815382 0.60585201 0.37300342 4288861816
-1.0781161 0.60394388 0.37627113 4288861816
-1.0817547 0.6154505 0.37666175 4288861816
-1.0790114 0.6149109 0.37292036 4288861816
-1.0818257 0.62453753 0.37471867 4288861816
-1.0792385 0.62587911 0.37449732 4288861816
-1.0819348 0.63362718 0.37549797 4288861816
-1.0785134 0.63670069 0.37487358 4288861816
-1.082322 0.64539582 0.37449157 4288861816
-1.0786282 0.64196706 0.37677631 4288861816
-1.083457 0.65522373 0.37519246 4288861816
-1.0849267 0.665079 0.37469622 4288861816
-1.0929233 0.67676067 0.37439603 4288861816
-1.0878719 0.67289728 0.37670046 4288861816
-1.0946755 0.68498635 0.37658188 4288861816
-1.0888932 0.68597138 0.3715851 4288861816
-1.0923119 0.69662881 0.37429622 4288861816
-1.0883726 0.69437575 0.37552711 4288861816
-1.094267 0.70500672 0.37478933 4288861816
-1.0957953 0.71523267 0.37542871 4288861816
-1.0971788 0.72503287 0.37494147 4288861816
-1.1005369 0.73582065 0.3761979 4288861816
-1.0975099 0.73476869 0.37472779 4288861816
-1.1017392 0.74641705 0.37358379 4288861816
-1.0984719 0.74425441 0.3764739 4288861816
-1.102893 0.75507569 0.375049 4288861816
-1.099465 0.75343394 0.37546158 4288861816
-1.1104659 0.76748699 0.37693939 4288861816
-1.1053103 0.76466602 0.37505972 4288861816
-1.1062293 0.77468133 0.37497663 4288861816
-1.1110623 0.78750497 0.37787035 4288861816
-1.1078781 0.7843371 0.37393716 4288861816
-1.1121593 0.79536331 0.37564623 4288861816
-1.1092043 0.79459989 0.3708455 4288861816
-1.1137269 0.80537707 0.3750146 4288861816
-1.1160687 0.81493044 0.37480122 4288861816
-1.1208894 0.82616425 0.37473428 4288861816
-1.1179497 0.82461971 0.37560666 4288861816
-1.1223693 0.83589393 0.37359077 4288861816
-1.1184812 0.83273804 0.37617433 4288861816
-1.1312534 0.8491593 0.370361 4288861816
-1.1265318 0.84454292 0.37545106 4288861816
-1.1314499 0.85641301 0.37733823 4288861816
-1.1283796 0.853912 0.37325275 4288861816
-1.1407442 0.86935604 0.37639686 4288861816
-1.1347201 0.86555976 0.3749305 4288861816
-1.1297345 0.86176711 0.37148494 4288861816
-1.1407173 0.87165588 0.37513316 4288861816
-1.1375848 0.87174118 0.37480414 4288861816
-1.1311871 0.51371104 0.38855404 4288861816
-1.1256257 0.51512778 0.38324249 4288861816
-1.114197 0.51948637 0.38383403 4288861816
-1.1042992 0.52213329 0.38593391 4288861816
-1.0933974 0.52345121 0.38592157 4288861816
-1.0854434 0.52382588 0.38357577 4288861816
-1.0761918 0.52394897 0.38582286 4288861816
-1.0774063 0.56674278 0.38510063 4288861816
-1.0815905 0.57430154 0.38657025 4288861816
-1.0786426 0.57464778 0.38390258 4288861816
-1.0813324 0.58356845 0.38311753 4288861816
-1.0787514 0.58538115 0.3859863 4288861816
-1.0806159 0.59314114 0.38725963 4288861816
-1.078418 0.59550691 0.38492838 4288861816
-1.0807337 0.60700637 0.38491917 4288861816
-1.0783643 0.60427779 0.38458115 4288861816
-1.0822808 0.61505508 0.38518167 4288861816
-1.0790118 0.61186808 0.38290358 4288861816
-1.0851588 0.62479895 0.38505021 4288861816
-1.0903789 0.63213938 0.38383159 4288861816
-1.0864469 0.63500607 0.38451037 4288861816
-1.0835116 0.64577866 0.38520956 4288861816
-1.0796394 0.64725876 0.38622603 4288861816
-1.0835197 0.65527999 0.38474825 4288861816
-1.0857307 0.66552621 0.38539124 4288861816
-1.0917267 0.67597038 0.383028 4288861816
-1.0884337 0.67428166 0.38568059 4288861816
-1.0919811 0.68507564 0.38635463 4288861816
-1.0894055 0.68467951 0.38363761 4288861816
-1.0911511 0.69454175 0.3838228 4288861816
-1.0881767 0.69568306 0.38524881 4288861816
-1.0931964 0.70507109 0.38534558 4288861816
-1.0882953 0.70135248 0.38333154 4288861816
-1.1001529 0.71975142 0.38401967 4288861816
-1.0963622 0.71446586 0.38493559 4288861816
-1.1006985 0.7220217 0.38378003 4288861816
-1.0974028 0.72565585 0.38582259 4288861816
-1.1012485 0.73629832 0.38766575 4288861816
-1.0982025 0.73446804 0.38326851 4288861816
-1.101783 0.74504453 0.38485411 4288861816
-1.0988282 0.74505699 0.38400382 4288861816
-1.104345 0.75483155 0.38513854 4288861816
-1.098979 0.75036711 0.38669461 4288861816
-1.1064595 0.76458752 0.38434595 4288861816
-1.1050694 0.7754845 0.38518521 4288861816
-1.1133994 0.78763026 0.38477519 4288861816
-1.1071941 0.7836169 0.38486841 4288861816
-1.1148756 0.79527867 0.38496166 4288861816
-1.1140375 0.8055734 0.38495237 4288861816
-1.1140275 0.81476605 0.384684 4288861816
-1.1089896 0.81819135 0.38729784 4288861816
-1.1146286 0.82449514 0.38520914 4288861816
-1.1095271 0.82042789 0.38706177 4288861816
-1.1223236 0.83526528 0.38477546 4288861816
-1.117913 0.83079427 0.3858833 4288861816
-1.1250567 0.84494203 0.38489434 4288861816
-1.1324115 0.85572278 0.38463041 4288861816
-1.1279882 0.85226852 0.38509575 4288861816
-1.1404896 0.86808115 0.38708982 4288861816
-1.135569 0.86484337 0.3853687 4288861816
-1.1416034 0.87031317 0.38787115 4288861816
-1.1386027 0.87104023 0.38220119 4288861816
-1.1279254 0.51613945 0.39199141 4288861816
-1.1122899 0.52178097 0.39496177 4288861816
-1.1041139 0.52259833 0.3947821 4288861816
-1.0945369 0.52333653 0.3953163 4288861816
-1.0840746 0.52359337 0.39480743 4288861816
-1.0744766 0.52281225 0.39584684 4288861816
-1.0818803 0.5676614 0.39354199 4288861816
-1.0813265 0.57514161 0.39541408 4288861816
-1.0787566 0.57684851 0.39427608 4288861816
-1.0820472 0.58570117 0.39483222 4288861816
-1.0792732 0.58233613 0.39619136 4288861816
-1.0818501 0.59402645 0.39454761 4288861816
-1.0789173 0.59823358 0.39518145 4288861816
-1.081412 0.60489517 0.39291239 4288861816
-1.0775901 0.60557669 0.39609671 4288861816
-1.0811529 0.61599374 0.39496019 4288861816
-1.0781151 0.6145072 0.39488116 4288861816
-1.0818925 0.62604457 0.39475325 4288861816
-1.0788544 0.62469792 0.3967748 4288861816
-1.0821751 0.63422865 0.39409456 4288861816
-1.078534 0.63525653 0.39586011 4288861816
-1.0815806 0.6437577 0.39448756 4288861816
-1.0786952 0.6450274 0.39621028 4288861816
-1.0826079 0.65506381 0.39546835 4288861816
-1.0789911 0.6522274 0.39292336 4288861816
-1.0855815 0.66471505 0.39487478 4288861816
-1.0916879 0.67645818 0.39316902 4288861816
-1.087911 0.67375034 0.39638004 4288861816
-1.0917047 0.68571854 0.39610979 4288861816
-1.0891424 0.68462855 0.3936682 4288861816
-1.0932096 0.69537556 0.3951489 4288861816
-1.0949914 0.7043708 0.39469293 4288861816
-1.1014749 0.71600652 0.39617923 4288861816
-1.0971694 0.7140733 0.39469743 4288861816
-1.1021543 0.72490621 0.39528626 4288861816
-1.0988806 0.72217506 0.3909643 4288861816
-1.1039776 0.73495269 0.39492944 4288861816
-1.1041864 0.74447793 0.39479488 4288861816
-1.1027077 0.75509608 0.39494842 4288861816
-1.0998418 0.75151217 0.39598233 4288861816
-1.1030991 0.76507115 0.39415622 4288861816
-1.0983241 0.76621014 0.39600283 4288861816
-1.1049531 0.77542162 0.39548078 4288861816
-1.0999579 0.77110726 0.39629054 4288861816
-1.1116391 0.78787684 0.39334345 4288861816
-1.106585 0.7840845 0.39494333 4288861816
-1.1138853 0.79531038 0.39364761 4288861816
-1.1084218 0.79444581 0.39885601 4288861816
-1.1134753 0.80501592 0.39474523 4288861816
-1.1132203 0.81510305 0.3957673 4288861816
-1.1215608 0.82995677 0.39275149 4288861816
-1.1158366 0.82429272 0.39482298 4288861816
-1.1219337 0.83553261 0.39482078 4288861816
-1.118858 0.83390999 0.39636695 4288861816
-1.1223667 0.84484512 0.39519393 4288861816
-1.1194143 0.84256101 0.39277187 4288861816
-1.1318969 0.85703516 0.39244977 4288861816
-1.1263771 0.85387212 0.39597553 4288861816
-1.1333961 0.86509913 0.39291966 4288861816
-1.128238 0.86406958 0.39693856 4288861816
-1.1406825 0.8736425 0.3949554 4288861816
-1.1369578 0.87217134 0.39561397 4288861816
-1.1045545 0.52494413 0.40671679 4288861816
-1.0948832 0.52321875 0.40464765 4288861816
-1.0853124 0.52156782 0.4051241 4288861816
-1.0757083 0.52158225 0.40494704 4288861816
-1.0655725 0.5220595 0.40428603 4288861816
-1.0543573 0.52443618 0.40490618 4288861816
-1.0453146 0.5248009 0.40518364 4288861816
-1.0839274 0.56907046 0.4058229 4288861816
-1.082026 0.57530922 0.40497142 4288861816
-1.0794004 0.57864606 0.40115821 4288861816
-1.0820628 0.58499807 0.40439141 4288861816
-1.0785099 0.58659494 0.40585268 4288861816
-1.0832767 0.59234476 0.40074125 4288861816
-1.0776436 0.59588879 0.40614039 4288861816
-1.0802876 0.60815191 0.40805006 4288861816
-1.0770727 0.60471153 0.40486115 4288861816
-1.0814384 0.61575401 0.40605655 4288861816
-1.0785416 0.61449093 0.40423918 4288861816
-1.0811647 0.6244005 0.40361866 4288861816
-1.0787593 0.62563819 0.40657735 4288861816
-1.0820426 0.63599634 0.40688238 4288861816
-1.0790312 0.63457751 0.40232867 4288861816
-1.083534 0.6455065 0.40448028 4288861816
-1.0853949 0.65523791 0.40536556 4288861816
-1.0903814 0.66919273 0.40401411 4288861816
-1.0875359 0.66440868 0.40452266 4288861816
-1.0913677 0.67535609 0.40249196 4288861816
-1.0874971 0.67497063 0.40691578 4288861816
-1.0924296 0.68535149 0.40326279 4288861816
-1.0882276 0.68349367 0.40731102 4288861816
-1.0957985 0.69542086 0.40468574 4288861816
-1.0892086 0.69295555 0.40822136 4288861816
-1.1020427 0.70522279 0.4054994 4288861816
-1.0962759 0.70492887 0.40448624 4288861816
-1.1019005 0.7154662 0.40680972 4288861816
-1.0972724 0.71545482 0.40529272 4288861816
-1.1020443 0.72525835 0.40537339 4288861816
-1.0992002 0.72337037 0.40136191 4288861816
-1.1019998 0.73603147 0.40587696 4288861816
-1.0992998 0.73335409 0.40463063 4288861816
-1.1032499 0.74479151 0.40444323 4288861816
-1.1027156 0.75542945 0.40525284 4288861816
-1.1031787 0.76526499 0.40494856 4288861816
-1.1041667 0.77490401 0.40462652 4288861816
-1.1054126 0.78509808 0.40535003 4288861816
-1.1124221 0.7980507 0.40504232 4288861816
-1.1079018 0.79391885 0.40502214 4288861816
-1.1137922 0.80568475 0.40488356 4288861816
-1.1096711 0.80220914 0.40532419 4288861816
-1.1203229 0.8130787 0.40996438 4288861816
-1.1172214 0.81515133 0.40500027 4288861816
-1.1208262 0.82626098 0.40387943 4288861816
-1.1183698 0.82493186 0.40518123 4288861816
-1.1234242 0.83530682 0.40526608 4288861816
-1.1191534 0.83219087 0.40616998 4288861816
-1.1254382 0.84518111 0.40454507 4288861816
-1.1308043 0.85669166 0.40536118 4288861816
-1.1283196 0.8548432 0.40540972 4288861816
-1.132704 0.86579686 0.40420586 4288861816
-1.1292416 0.86223739 0.4052577 4288861816
-1.141562 0.87382269 0.40478271 4288861816
-1.1372883 0.87268716 0.40622926 4288861816
-1.1208894 0.52360708 0.41961026 4288861816
-1.113102 0.52508897 0.41557679 4288861816
-1.1056178 0.52418745 0.41438431 4288861816
-1.0948485 0.52215785 0.41410783 4288861816
-1.0852278 0.5226723 0.41637012 4288861816
-1.0759259 0.52194637 0.41485697 4288861816
-1.065657 0.52280939 0.41545227 4288861816
-1.0560124 0.52439249 0.41377598 4288861816
-1.0450956 0.52592582 0.41563609 4288861816
-1.0877119 0.56786048 0.41498983 4288861816
-1.0837287 0.57556796 0.41529432 4288861816
-1.0825526 0.58409965 0.41298485 4288861816
-1.0786967 0.58652651 0.41668516 4288861816
-1.076624 0.59620488 0.41539198 4288861816
-1.0805782 0.60686076 0.41447851 4288861816
-1.0770825 0.60424745 0.41493669 4288861816
-1.0810068 0.61523807 0.41603664 4288861816
-1.0784343 0.6137957 0.41321963 4288861816
-1.081388 0.62535852 0.41251868 4288861816
-1.0778128 0.62466621 0.41741374 4288861816
-1.0834202 0.63600791 0.4152191 4288861816
-1.0795475 0.632025 0.41505504 4288861816
-1.0901059 0.64402312 0.41684031 4288861816
-1.0865233 0.64453173 0.41474661 4288861816
-1.0846487 0.65463048 0.41487604 4288861816
-1.0841434 0.66500455 0.41524494 4288861816
-1.0847023 0.67449033 0.41463512 4288861816
-1.0903943 0.68834794 0.41274676 4288861816
-1.086592 0.68454921 0.4153851 4288861816
-1.0913839 0.69585574 0.41365942 4288861816
-1.0882709 0.69395417 0.41576084 4288861816
-1.0934402 0.70447952 0.41524491 4288861816
-1.0893641 0.70492458 0.41542327 4288861816
-1.1007895 0.71888 0.4149096 4288861816
-1.0939256 0.71468049 0.41465136 4288861816
-1.1015636 0.725281 0.41288763 4288861816
-1.0981327 0.72407401 0.41774043 4288861816
-1.1022595 0.73558575 0.41482061 4288861816
-1.099182 0.73303223 0.41506052 4288861816
-1.1038051 0.74480975 0.41532186 4288861816
-1.1049979 0.75470608 0.41457024 4288861816
-1.1050878 0.7656613 0.415438 4288861816
-1.1107919 0.77845216 0.41986257 4288861816
-1.1061239 0.77527648 0.41442165 4288861816
-1.1114662 0.78599459 0.41706133 4288861816
-1.1084757 0.78431684 0.41268128 4288861816
-1.1135412 0.7953617 0.41532195 4288861816
-1.1095089 0.79206067 0.41040561 4288861816
-1.12094 0.80851841 0.41346306 4288861816
-1.1169935 0.8046034 0.41513541 4288861816
-1.1210778 0.81482959 0.41595027 4288861816
-1.1185439 0.81549329 0.41489342 4288861816
-1.1213818 0.82509959 0.41384536 4288861816
-1.1186417 0.82518333 0.41563588 4288861816
-1.1232445 0.83636391 0.41509476 4288861816
-1.1189615 0.83262372 0.41607022 4288861816
-1.1307575 0.84889704 0.41777435 4288861816
-1.1268673 0.84497648 0.4144229 4288861816
-1.1320615 0.85590208 0.41636664 4288861816
-1.1287949 0.8533619 0.41195607 4288861816
-1.1342878 0.86520135 0.4147 4288861816
-1.1422756 0.87353534 0.41665834 4288861816
-1.1394955 0.87265962 0.41222483 4288861816
-1.1143415 0.52661097 0.42502952 4288861816
-1.1059998 0.52614152 0.4243747 4288861816
-1.0944524 0.52634656 0.42507145 4288861816
-1.0859973 0.52494305 0.42555997 4288861816
-1.0752388 0.523368 0.42452797 4288861816
-1.0646777 0.52391839 0.42510295 4288861816
-1.0545453 0.52481449 0.42483744 4288861816
-1.044785 0.52457207 0.42484042 4288861816
-1.0813105 0.56908536 0.42527932 4288861816
-1.0790273 0.56914347 0.42646059 4288861816
-1.0771447 0.57571119 0.4253073 4288861816
-1.0802839 0.58401859 0.42080677 4288861816
-1.0764254 0.58517802 0.42543459 4288861816
-1.0813773 0.59672171 0.42648175 4288861816
-1.077306 0.59408432 0.42392603 4288861816
-1.0808934 0.60328794 0.42215672 4288861816
-1.0781497 0.60507601 0.42667082 4288861816
-1.0767875 0.61451811 0.42447597 4288861816
-1.0813609 0.62766737 0.42613634 4288861816
-1.0777242 0.6246016 0.42524472 4288861816
-1.0818061 0.6348716 0.42410681 4288861816
-1.0787832 0.63536322 0.42554998 4288861816
-1.0828218 0.64545763 0.42533669 4288861816
-1.0792034 0.64198184 0.42802322 4288861816
-1.0832777 0.65484291 0.42454207 4288861816
-1.084296 0.66568583 0.42554942 4288861816
-1.0903283 0.67876875 0.42816353 4288861816
-1.0862979 0.67534345 0.42413202 4288861816
-1.0906651 0.68611026 0.42487425 4288861816
-1.0883925 0.68480915 0.42574617 4288861816
-1.0912664 0.69481915 0.42390376 4288861816
-1.0892003 0.69390452 0.42549866 4288861816
-1.0927624 0.70532984 0.42563534 4288861816
-1.0897899 0.70053715 0.42407596 4288861816
-1.1000035 0.71902686 0.4239144 4288861816
-1.0943969 0.71497059 0.42455769 4288861816
-1.1016887 0.72734332 0.42562455 4288861816
-1.0979908 0.72356695 0.42522493 4288861816
-1.1038684 0.73455518 0.42433017 4288861816
-1.1042389 0.74530536 0.42545152 4288861816
-1.1051627 0.75427574 0.4243342 4288861816
-1.0980353 0.7594949 0.42835301 4288861816
-1.1048831 0.76490623 0.42499256 4288861816
-1.0985669 0.76170659 0.42811957 4288861816
-1.1051106 0.77479786 0.42511007 4288861816
-1.1134439 0.78754467 0.42321408 4288861816
-1.1070515 0.78382087 0.42578688 4288861816
-1.1153666 0.79566425 0.42405105 4288861816
-1.1081333 0.79368025 0.42806008 4288861816
-1.1205684 0.8072902 0.42183164 4288861816
-1.1157199 0.80452424 0.42583722 4288861816
-1.120574 0.81467873 0.42316753 4288861816
-1.1169789 0.8145898 0.42502293 4288861816
-1.1214852 0.82818484 0.4228631 4288861816
-1.1165551 0.82450062 0.42578042 4288861816
-1.1218014 0.83579993 0.42415038 4288861816
-1.1185791 0.83445531 0.42559299 4288861816
-1.1238285 0.84592736 0.42482954 4288861816
-1.119548 0.84359342 0.42804888 4288861816
-1.1343703 0.85598654 0.42527345 4288861816
-1.1278074 0.85229969 0.42386213 4288861816
-1.140631 0.86945415 0.42429361 4288861816
-1.1357763 0.86540329 0.4243646 4288861816
-1.1294446 0.86199355 0.42946959 4288861816
-1.1417599 0.87468642 0.4245615 4288861816
-1.1378783 0.87271917 0.42669028 4288861816
-1.1315981 0.52305514 0.4387646 4288861816
-1.1229055 0.52575082 0.4345881 4288861816
-1.1156915 0.52497184 0.43561488 4288861816
-1.1055051 0.52453953 0.43493348 4288861816
-1.0949385 0.52385873 0.43447527 4288861816
-1.0842385 0.52356458 0.43415928 4288861816
-1.0755105 0.52429283 0.43501458 4288861816
-1.0747477 0.57563949 0.43457368 4288861816
-1.0818037 0.58868653 0.43497133 4288861816
-1.0775104 0.58479625 0.43544751 4288861816
-1.0817646 0.59492469 0.43230119 4288861816
-1.0782166 0.59502763 0.4350687 4288861816
-1.0804559 0.60278261 0.43630716 4288861816
-1.0777433 0.60506529 0.43540567 4288861816
-1.0761621 0.61501402 0.43483567 4288861816
-1.0810059 0.62762398 0.43879181 4288861816
-1.0777144 0.62469912 0.43454096 4288861816
-1.0818574 0.63537568 0.43619195 4288861816
-1.0789156 0.63444906 0.43150032 4288861816
-1.0827402 0.6445269 0.4351106 4288861816
-1.0829588 0.65470302 0.43535361 4288861816
-1.0793946 0.65254587 0.4311465 4288861816
-1.0904343 0.66970628 0.43314314 4288861816
-1.0854204 0.66485363 0.43492937 4288861816
-1.0906876 0.67673194 0.43657255 4288861816
-1.0878047 0.67468321 0.43425253 4288861816
-1.0905502 0.68356991 0.43438873 4288861816
-1.0870744 0.68583751 0.43544084 4288861816
-1.0912033 0.69630647 0.43508357 4288861816
-1.0881715 0.69389313 0.4352065 4288861816
-1.1006608 0.70787656 0.43934256 4288861816
-1.0961703 0.70472342 0.43492094 4288861816
-1.0889859 0.70003331 0.43339342 4288861816
-1.1014758 0.71505725 0.43698055 4288861816
-1.0985628 0.71430457 0.43224758 4288861816
-1.1022263 0.72504491 0.43425196 4288861816
-1.0991961 0.72434026 0.43677846 4288861816
-1.1037961 0.73492789 0.43484104 4288861816
-1.1040694 0.7444458 0.43516493 4288861816
-1.0998396 0.7482065 0.43750116 4288861816
-1.1016647 0.75353909 0.43599254 4288861816
-1.0991474 0.75538808 0.43353045 4288861816
-1.1020187 0.7665872 0.4358052 4288861816
-1.0984106 0.76316398 0.43474939 4288861816
-1.1040523 0.77497363 0.43475255 4288861816
-1.0997115 0.77175033 0.43319747 4288861816
-1.1062148 0.78476518 0.43532705 4288861816
-1.1120245 0.79680991 0.43302667 4288861816
-1.1087514 0.79345524 0.43524876 4288861816
-1.1131183 0.80494499 0.43566814 4288861816
-1.1099349 0.80023801 0.43613899 4288861816
-1.1152855 0.8145647 0.43456146 4288861816
-1.1208392 0.82954377 0.43426475 4288861816
-1.1166704 0.82464468 0.43509513 4288861816
-1.1214085 0.83665895 0.43708661 4288861816
-1.11847 0.83489972 0.43284103 4288861816
-1.1231871 0.84553236 0.43512785 4288861816
-1.1308783 0.85856104 0.4338102 4288861816
-1.1265091 0.85503 0.43489888 4288861816
-1.1321865 0.86577016 0.43469423 4288861816
-1.1290238 0.86249113 0.43683854 4288861816
-1.1409323 0.87607825 0.43178815 4288861816
-1.1355193 0.87440282 0.43508446 4288861816
-1.1295975 0.87834221 0.43993315 4288861816
-1.1301253 0.88053793 0.43970141 4288861816
-1.1327881 0.5229938 0.44089288 4288861816
-1.1238261 0.52344882 0.44396901 4288861816
-1.1138566 0.52471304 0.44536516 4288861816
-1.1050487 0.52519137 0.44380325 4288861816
-1.0944254 0.52616084 0.44470501 4288861816
-1.084552 0.52558553 0.44457427 4288861816
-1.0745242 0.526896 0.44741404 4288861816
-1.0818249 0.57469368 0.44789168 4288861816
-1.0755674 0.57626253 0.44286397 4288861816
-1.0810698 0.58538824 0.4451921 4288861816
-1.0789752 0.58404374 0.44500482 4288861816
-1.0804566 0.59451997 0.44486487 4288861816
-1.0776399 0.59523499 0.44475916 4288861816
-1.0811096 0.60536987 0.44551051 4288861816
-1.0781009 0.60440606 0.44529986 4288861816
-1.0818177 0.61524194 0.44677022 4288861816
-1.0788968 0.61397731 0.44229394 4288861816
-1.083912 0.62494588 0.44532695 4288861816
-1.0797371 0.62044376 0.44035423 4288861816
-1.0836558 0.63605583 0.44486159 4288861816
-1.0836581 0.6453194 0.44444859 4288861816
-1.0843132 0.65504712 0.44531387 4288861816
-1.0901598 0.66891909 0.44144925 4288861816
-1.0867851 0.66474521 0.44503951 4288861816
-1.0914373 0.67589289 0.44419843 4288861816
-1.0883266 0.67437494 0.445802 4288861816
-1.0912679 0.68567783 0.4450053 4288861816
-1.0885081 0.68491101 0.44403893 4288861816
-1.0927379 0.69567287 0.44430232 4288861816
-1.0890741 0.69166464 0.44844192 4288861816
-1.0946611 0.70495111 0.44519636 4288861816
-1.1017089 0.71372539 0.44332933 4288861816
-1.0957384 0.71461505 0.44517812 4288861816
-1.1012828 0.72525239 0.44171596 4288861816
-1.0960673 0.72499883 0.4459624 4288861816
-1.1024941 0.7363143 0.44323286 4288861816
-1.0982403 0.7341181 0.44572362 4288861816
-1.1017036 0.74535131 0.44543457 4288861816
-1.0994691 0.74498016 0.44692826 4288861816
-1.1018533 0.75490075 0.44588122 4288861816
-1.0991066 0.75541526 0.44338772 4288861816
-1.1036919 0.76497608 0.44470143 4288861816
-1.0994151 0.76208413 0.44825432 4288861816
-1.1101962 0.77790564 0.44841003 4288861816
-1.1065272 0.77444422 0.4448247 4288861816
-1.1109151 0.78506023 0.44589245 4288861816
-1.1072347 0.78442717 0.44452932 4288861816
-1.1121962 0.79448557 0.44381857 4288861816
-1.1079109 0.79387385 0.44808131 4288861816
-1.113868 0.80454582 0.44340485 4288861816
-1.1078794 0.80542105 0.44861767 4288861816
-1.120263 0.81979275 0.44398895 4288861816
-1.1163641 0.81541389 0.44362405 4288861816
-1.1095204 0.81315297 0.44741881 4288861816
-1.1212245 0.82580125 0.44250506 4288861816
-1.1135443 0.82472634 0.44712982 4288861816
-1.1228676 0.83549315 0.44217652 4288861816
-1.1156627 0.83486569 0.44675478 4288861816
-1.1229126 0.84549892 0.44454283 4288861816
-1.1192734 0.84466726 0.4479309 4288861816
-1.1242138 0.85517085 0.44488883 4288861816
-1.1309317 0.86678857 0.44839358 4288861816
-1.1279244 0.86450607 0.44430381 4288861816
-1.1321038 0.87539738 0.44590509 4288861816
-1.1288798 0.87348878 0.44123536 4288861816
-1.1334476 0.88036668 0.4456439 4288861816
-1.1123345 0.52650464 0.45220381 4288861816
-1.1064761 0.52676749 0.45325932 4288861816
-1.0944731 0.52858007 0.45544195 4288861816
-1.084938 0.52714467 0.45489672 4288861816
-1.0745363 0.526465 0.4560743 4288861816
-1.0933675 0.56610596 0.45332584 4288861816
-1.0892794 0.56851411 0.45531872 4288861816
-1.0834962 0.57544005 0.45495981 4288861816
-1.0814493 0.58582586 0.45420203 4288861816
-1.0786064 0.58598489 0.45527858 4288861816
-1.0800285 0.59552187 0.4540481 4288861816
-1.0780628 0.59555483 0.45549363 4288861816
-1.0812298 0.60568386 0.45459574 4288861816
-1.0789478 0.60370684 0.45451412 4288861816
-1.0827713 0.61523896 0.45536858 4288861816
-1.0796021 0.6107794 0.45360118 4288861816
-1.0858276 0.62472749 0.45509663 4288861816
-1.0852647 0.63428235 0.45483947 4288861816
-1.0820059 0.64574581 0.45417079 4288861816
-1.0789675 0.64432514 0.45567632 4288861816
-1.0905795 0.65948582 0.45764464 4288861816
-1.0840839 0.65544373 0.45518509 4288861816
-1.0797986 0.65071964 0.45375815 4288861816
-1.0911044 0.66245615 0.45699826 4288861816
-1.0880767 0.66551358 0.45407438 4288861816
-1.0901074 0.67481828 0.45917132 4288861816
-1.0869606 0.67474991 0.45492068 4288861816
-1.0905341 0.6859917 0.45401362 4288861816
-1.0872893 0.68517697 0.45491418 4288861816
-1.0912173 0.69569242 0.45343596 4288861816
-1.0875068 0.69449449 0.45636398 4288861816
-1.0925062 0.70534968 0.45418379 4288861816
-1.0885601 0.70441914 0.45701477 4288861816
-1.0935758 0.71491176 0.45498401 4288861816
-1.0894929 0.71146882 0.4575462 4288861816
-1.0942384 0.72530627 0.45381853 4288861816
-1.0893252 0.72452772 0.45704308 4288861816
-1.1003945 0.73712087 0.45271474 4288861816
-1.096573 0.73427331 0.45576328 4288861816
-1.1006246 0.74120075 0.45096231 4288861816
-1.0953233 0.74536508 0.45564598 4288861816
-1.1016912 0.75455171 0.45415407 4288861816
-1.097571 0.75419772 0.45545736 4288861816
-1.1005455 0.76242238 0.45285773 4288861816
-1.0972488 0.7663694 0.45519781 4288861816
-1.1025275 0.77710384 0.4534055 4288861816
-1.0978491 0.77427959 0.45627639 4288861816
-1.1056498 0.78519088 0.45538956 4288861816
-1.1105428 0.79648256 0.45803609 4288861816
-1.107635 0.79455525 0.45393369 4288861816
-1.1118079 0.8055082 0.45549139 4288861816
-1.108567 0.80273575 0.45423928 4288861816
-1.1141782 0.81585681 0.45471644 4288861816
-1.1094098 0.81277704 0.45788985 4288861816
-1.1165251 0.82454079 0.45473123 4288861816
-1.1208913 0.83837998 0.45410603 4288861816
-1.1171951 0.83445257 0.45465687 4288861816
-1.1229122 0.84564048 0.45498863 4288861816
-1.1186805 0.84208989 0.45871681 4288861816
-1.1303562 0.85916293 0.45978609 4288861816
-1.1260407 0.85476923 0.45450866 4288861816
-1.1320481 0.86513066 0.45495817 4288861816
-1.1291901 0.8645407 0.45488796 4288861816
-1.1358076 0.87415713 0.45467982 4288861816
-1.1373236 0.88016695 0.45257676 4288861816
-1.1118203 0.52881372 0.46577737 4288861816
-1.104026 0.52723467 0.46657088 4288861816
-1.1141171 0.53102797 0.46865201 4288861816
-1.0880493 0.56849438 0.46362951 4288861816
-1.084932 0.57480109 0.46579331 4288861816
-1.0790861 0.57972062 0.46074477 4288861816
-1.0814855 0.58400571 0.4645656 4288861816
-1.0788976 0.58645087 0.46383128 4288861816
-1.0821431 0.59470785 0.46657643 4288861816
-1.0791532 0.59312212 0.46214867 4288861816
-1.0828526 0.60588545 0.46433026 4288861816
-1.0775909 0.60367227 0.4642846 4288861816
-1.0849441 0.61454684 0.46511397 4288861816
-1.0847449 0.6249007 0.4642629 4288861816
-1.0795553 0.62386316 0.46753323 4288861816
-1.0825208 0.63545078 0.46405208 4288861816
-1.0786093 0.63509834 0.46829829 4288861816
-1.0819342 0.64512688 0.46434256 4288861816
-1.0776591 0.6472429 0.46601683 4288861816
-1.0853603 0.65522218 0.46288633 4288861816
-1.0783397 0.65573025 0.46737888 4288861816
-1.0846885 0.66514158 0.46403337 4288861816
-1.0782785 0.6632995 0.46661749 4288861816
-1.0901598 0.67033738 0.46163344 4288861816
-1.0838926 0.6755994 0.46537277 4288861816
-1.0790416 0.67199546 0.46838686 4288861816
-1.086311 0.68508112 0.46505955 4288861816
-1.0908791 0.6954667 0.46845093 4288861816
-1.0861459 0.69525129 0.46381599 4288861816
-1.0923872 0.70531785 0.46589708 4288861816
-1.088827 0.70216703 0.46129274 4288861816
-1.092764 0.71523434 0.4650844 4288861816
-1.0925499 0.72522974 0.46507305 4288861816
-1.0894922 0.72167951 0.46051827 4288861816
-1.0955842 0.73481333 0.46472126 4288861816
-1.1012727 0.74642694 0.46665812 4288861816
-1.098146 0.74419367 0.46465939 4288861816
-1.1023641 0.75560576 0.46524853 4288861816
-1.0990638 0.75220609 0.46123311 4288861816
-1.1022065 0.76459539 0.46719441 4288861816
-1.0978749 0.7657066 0.46246594 4288861816
-1.1027559 0.77643132 0.46477604 4288861816
-1.098722 0.77290988 0.46573094 4288861816
-1.110791 0.78705299 0.46346027 4288861816
-1.1062779 0.78423029 0.46439222 4288861816
-1.1120247 0.79635936 0.46220675 4288861816
-1.107476 0.79386508 0.46448538 4288861816
-1.112985 0.8046571 0.46382958 4288861816
-1.1091074 0.80341411 0.46230879 4288861816
-1.1206255 0.81867385 0.46405959 4288861816
-1.1141174 0.81455415 0.46245092 4288861816
-1.115851 0.82568532 0.46240863 4288861816
-1.1152842 0.83511275 0.46144882 4288861816
-1.1222279 0.84499168 0.46133724 4288861816
-1.1290412 0.8536914 0.4603636 4288861816
-1.1124115 0.52877414 0.4720729 4288861816
-1.1071588 0.52690065 0.47406903 4288861816
-1.1129642 0.53107375 0.47183019 4288861816
-1.1084911 0.53197664 0.47708067 4288861816
-1.0829836 0.5755024 0.47228315 4288861816
-1.0748804 0.57799852 0.47727507 4288861816
-1.0813115 0.58473498 0.47038615 4288861816
-1.0770234 0.58405817 0.47590095 4288861816
-1.0754281 0.59515113 0.47535351 4288861816
-1.0828581 0.60671937 0.47385377 4288861816
-1.0772643 0.60331118 0.47496533 4288861816
-1.0824862 0.61413717 0.47537681 4288861816
-1.079177 0.6179868 0.47416145 4288861816
-1.0813411 0.62515843 0.47138941 4288861816
-1.0774038 0.62619168 0.47611898 4288861816
-1.0807481 0.6354664 0.47187096 4288861816
-1.0778234 0.63546926 0.47648716 4288861816
-1.0819066 0.64579642 0.47629854 4288861816
-1.078562 0.64460427 0.47365478 4288861816
-1.0819366 0.65536571 0.47495404 4288861816
-1.0797424 0.65272415 0.47562629 4288861816
-1.0818905 0.66482663 0.47580037 4288861816
-1.0790023 0.66594124 0.47151914 4288861816
-1.0848262 0.67509705 0.475261 4288861816
